ply
format ascii 1.0
element vertex 50
property float x
property float y
property float z
property float nx
property float ny
property float nz
property uchar diffuse_red
property uchar diffuse_green
property uchar diffuse_blue
end_header
66.7374 4.3473 178.5747 -0.518 0.566 -0.641 185 173 147
68.2550 4.5341 176.2828 -0.347 0.553 -0.758 190 178 154
69.8998 4.7741 176.4104 -0.339 -0.025 -0.941 192 182 157
70.2575 4.8244 176.3107 -0.339 -0.025 -0.941 192 181 159
70.5570 4.8644 176.0703 -0.325 0.105 -0.940 193 182 160
72.7653 5.2055 177.5521 0.488 0.475 -0.732 195 184 162
67.2948 4.8261 177.0234 -0.728 0.330 -0.601 184 172 146
69.5391 5.0949 173.7070 -0.292 0.053 -0.955 191 179 155
71.0845 5.3657 176.5115 -0.260 0.146 -0.954 192 180 156
71.6481 5.4539 176.9115 0.097 -0.166 -0.981 192 180 156
5.1503 5.5045 173.6401 -0.252 0.649 -0.718 187 175 151
74.4696 26.7818 179.1512 -0.510 0.382 -0.771 109 92 84
74.2403 26.0416 173.9766 -0.813 0.388 -0.434 124 107 97
74.3803 25.9816 173.3992 -0.800 0.413 -0.435 122 108 97
74.6422 25.9772 173.1050 -0.814 0.327 -0.480 124 110 99
75.0688 26.0467 173.1867 -0.610 0.550 -0.571 128 111 101
83.8326 29.0090 182.8771 -0.371 -0.489 -0.790 130 119 99
84.3010 29.0901 182.9990 -0.384 -0.509 -0.770 131 120 100
52.8416 24.1760 175.5660 -0.576 -0.371 -0.728 124 110 97
82.2678 28.7709 179.6349 -0.493 -0.383 -0.781 126 115 97
63.2361 24.8192 164.5473 0.270 -0.122 -0.955 96 82 79
63.5880 24.7213 163.5544 0.806 0.059 -0.589 95 81 78
64.0137 24.7993 163.6906 0.835 0.002 -0.550 93 79 76
64.4370 24.8759 163.8198 0.819 0.002 -0.573 92 78 75
64.7353 24.8900 163.6391 0.741 -0.195 -0.643 91 80 78
79.1873 28.8986 177.5325 -0.581 0.390 -0.714 101 91 82
80.5138 28.8676 176.0910 -0.798 0.068 -0.599 113 103 91
57.1748 26.4278 178.2066 0.189 0.692 -0.696 102 89 83
64.0076 25.2059 163.7958 0.872 0.018 -0.490 90 76 75
64.3580 25.2456 163.7429 0.850 -0.112 -0.515 89 75 74
79.9562 29.4332 177.5767 -0.660 0.571 -0.488 97 87 78
80.2109 29.4208 177.2621 -0.624 0.117 -0.772 99 89 79
80.2469 29.3088 176.4788 -0.814 0.444 -0.376 103 93 83
81.0974 29.4425 176.5995 -0.581 -0.226 -0.782 110 100 90
58.7553 27.2566 179.4279 0.528 0.605 -0.596 92 78 77
80.9615 32.0092 176.9585 -0.818 0.472 -0.328 75 62 54
45.1298 22.9045 148.7867 -0.787 0.213 -0.579 107 98 93
46.1744 23.6391 148.0695 0.417 -0.714 -0.562 100 90 89
45.6761 23.8669 147.7134 -0.623 -0.308 -0.719 95 85 84
46.0492 23.9356 147.8199 0.346 -0.750 -0.563 96 86 85
52.3599 30.9103 180.5320 0.444 0.439 -0.781 99 90 83
60.2981 32.6911 182.0976 -0.700 -0.688 -0.192 77 67 66
55.0322 32.0684 180.1357 -0.414 0.883 -0.220 74 65 60
56.4218 32.3384 180.5980 -0.231 0.851 -0.471 79 69 68
58.5272 34.5076 181.3606 -0.755 -0.516 -0.405 72 61 57
42.8447 29.5237 139.7605 -0.567 0.714 -0.412 101 87 78
43.0717 29.4860 139.4652 -0.568 0.712 -0.413 102 88 79
44.2162 31.2425 140.5502 -0.758 -0.413 -0.506 89 69 62
-2.6232 43.0057 175.4097 0.582 0.689 -0.432 174 156 144
-0.7987 57.0442 182.3255 -0.505 0.366 -0.782 51 33 33
