ply
format ascii 1.0
element vertex 71
property float x
property float y
property float z
property float nx
property float ny
property float nz
property uchar diffuse_red
property uchar diffuse_green
property uchar diffuse_blue
end_header
-3.0745 -47.2005 178.2783 0.897 -0.361 -0.255 213 202 180
45.9841 -41.7315 166.3193 -0.804 -0.284 -0.522 210 202 181
-5.8154 -44.6803 180.4435 -0.867 -0.029 -0.497 207 196 174
-14.5938 -28.3765 144.5776 -0.156 0.946 -0.285 197 185 169
-84.7439 -30.5897 127.1953 -0.310 -0.814 -0.492 239 233 237
-14.1408 -27.2597 151.8784 0.389 0.866 -0.316 187 170 152
-16.0548 -25.3881 160.2699 -0.715 -0.458 -0.528 192 178 165
36.9161 -21.3932 149.1199 0.552 0.332 -0.765 143 131 109
58.1597 -20.4653 174.5245 0.900 -0.310 -0.306 146 131 102
61.5863 -19.5370 177.8467 0.760 -0.249 -0.600 147 133 106
64.2861 -18.1817 179.0711 -0.303 -0.218 -0.927 141 130 108
64.4612 -17.7576 178.5609 -0.530 -0.460 -0.712 137 129 110
65.6893 -17.2856 178.8202 0.249 -0.754 -0.608 141 130 112
65.2618 -16.8944 177.7450 0.607 -0.623 -0.494 136 127 110
50.3671 -16.8626 162.7235 0.620 -0.722 -0.308 92 77 72
40.3379 -16.6650 154.9543 -0.059 0.918 -0.391 83 71 71
57.3633 -15.7020 171.7065 0.033 0.935 -0.353 77 66 64
58.1218 -15.6569 172.8066 -0.529 0.716 -0.456 77 66 64
58.3325 -15.6490 172.3521 -0.722 0.564 -0.400 77 66 64
58.6908 -15.6311 172.3169 -0.729 0.553 -0.403 79 68 64
46.1919 -15.7432 186.3215 -0.024 -0.991 -0.131 77 63 63
40.4904 -15.7820 169.0101 0.922 -0.372 -0.113 84 72 72
40.0213 -15.4338 167.2446 0.922 -0.370 -0.114 88 76 76
39.6820 -15.0795 165.9838 0.912 -0.396 -0.110 91 79 79
58.8044 -14.1422 165.8235 0.335 0.896 -0.292 76 62 59
40.4489 -14.6764 164.7618 0.019 -0.993 -0.114 93 84 79
40.7860 -14.6618 164.6572 0.009 -0.993 -0.114 93 84 79
64.0786 -13.3891 172.1311 -0.143 0.170 -0.975 83 70 62
32.7017 -14.6679 164.7098 -0.905 -0.066 -0.421 106 99 91
63.6792 -12.6633 170.2469 -0.424 -0.353 -0.834 76 63 57
62.6267 -12.3442 169.4389 -0.429 -0.507 -0.747 74 60 57
63.2693 -12.3188 169.2351 -0.009 -0.724 -0.690 73 60 54
63.5654 -12.3088 169.0717 -0.052 -0.690 -0.722 78 65 59
63.9146 -12.2928 169.0452 -0.052 -0.690 -0.722 79 66 60
62.4759 -12.0244 167.2421 0.004 -0.660 -0.751 70 57 51
62.8146 -12.0096 167.1975 -0.012 -0.666 -0.746 74 61 55
37.8367 -12.1449 188.8048 0.609 -0.784 -0.118 98 91 83
39.6618 -10.5513 193.4967 0.261 -0.959 -0.108 101 94 86
44.5447 -8.6880 199.6940 0.339 -0.936 -0.089 88 79 70
44.2091 -8.3850 196.5148 0.359 -0.929 -0.089 91 81 72
37.4411 -8.5624 173.3417 0.641 -0.764 -0.080 107 96 90
41.4563 -7.3954 183.6177 0.668 -0.740 -0.079 99 86 78
32.2670 -7.6358 178.9372 -0.064 -0.891 -0.450 123 109 96
-13.3532 13.4397 197.9852 0.709 -0.667 -0.227 57 33 31
-12.9186 13.6152 198.9536 0.599 -0.778 -0.188 49 25 25
-12.8948 14.3490 197.5389 0.625 -0.753 -0.205 49 29 28
-12.8690 14.6634 196.5606 0.657 -0.679 -0.328 51 33 29
-15.9703 17.1664 189.9300 0.804 -0.220 -0.553 49 34 31
-15.8938 17.3502 188.4838 -0.311 -0.451 -0.837 44 29 26
-15.3117 17.0049 186.6791 -0.501 -0.372 -0.782 46 28 28
-15.2733 20.7102 191.0738 -0.036 -0.978 -0.206 43 25 25
-15.9693 21.1309 186.6181 0.857 -0.415 -0.306 35 19 19
-15.5505 21.2678 187.2029 0.049 -0.981 -0.187 40 22 22
-13.9103 20.3326 182.8205 -0.189 -0.952 -0.239 56 36 37
-15.8883 21.2640 185.1380 0.747 -0.501 -0.438 37 21 21
-15.9342 21.7964 185.4716 -0.438 -0.795 -0.418 40 24 25
-18.8166 20.5694 176.3806 0.775 -0.603 -0.190 71 49 51
-18.4537 20.7672 177.2115 0.749 -0.635 -0.189 55 35 36
-18.8158 20.9491 176.1309 0.764 -0.616 -0.189 55 33 35
-16.0081 22.4831 178.7102 0.233 -0.965 -0.117 37 21 22
-18.1011 22.4380 171.5014 0.517 -0.834 -0.193 43 24 28
60.1419 30.2439 181.2280 0.889 -0.452 -0.067 55 29 30
61.2289 39.8414 211.0122 0.830 0.530 -0.173 60 40 33
34.4662 20.9371 129.1200 0.253 -0.966 -0.059 30 16 13
-18.9108 44.4664 200.2739 0.823 -0.506 -0.257 56 37 31
-19.1337 43.8007 196.6798 0.820 -0.498 -0.281 45 25 26
-19.0077 42.2311 188.9198 0.219 0.907 -0.360 41 18 24
-19.6559 45.1263 196.2533 0.885 -0.249 -0.393 42 19 25
-19.9748 44.8902 194.0815 0.502 0.682 -0.532 38 15 21
-20.0982 46.1474 194.9400 0.764 -0.592 -0.256 40 13 18
-19.5174 46.1468 193.5106 0.361 -0.902 -0.235 47 18 23
