ply
format ascii 1.0
element vertex 300
property float x
property float y
property float z
property float nx
property float ny
property float nz
property uchar diffuse_red
property uchar diffuse_green
property uchar diffuse_blue
end_header
11.6546 -4.6114 158.0317 -0.418 -0.842 -0.341 211 203 180
11.9763 -4.4566 157.2714 -0.275 -0.902 -0.332 209 201 178
12.4448 -3.0662 150.7872 -0.006 -0.943 -0.332 203 193 168
59.5795 1.6606 163.8164 0.353 -0.854 -0.382 196 184 160
64.5453 3.5603 164.0162 0.100 -0.704 -0.703 189 179 154
64.8186 3.6377 163.7238 0.094 -0.713 -0.695 190 180 155
65.2086 3.6917 163.7252 0.094 -0.713 -0.695 190 180 155
60.8436 1.7216 177.1507 -0.108 -0.633 -0.766 186 172 145
59.1058 1.9160 177.2195 -0.037 -0.714 -0.699 180 168 142
68.3582 4.4057 167.9205 0.303 -0.802 -0.515 184 177 151
62.4493 2.6629 178.4859 0.085 0.232 -0.969 179 165 139
69.2323 4.0111 175.2773 -0.640 -0.417 -0.645 183 171 147
61.9562 5.5597 155.1766 -0.797 -0.377 -0.471 182 172 147
71.1050 5.6628 164.3339 -0.099 -0.316 -0.944 188 181 155
62.4419 3.0873 178.6595 0.151 -0.272 -0.950 177 163 137
68.7423 4.3830 175.2636 -0.687 -0.366 -0.628 181 169 145
69.0192 4.4648 174.9152 -0.687 -0.366 -0.628 181 169 145
68.4393 4.7227 175.7250 -0.688 -0.363 -0.629 179 165 139
69.8988 4.9874 175.2104 0.052 -0.528 -0.847 176 164 138
70.3338 5.0416 175.2591 0.063 -0.535 -0.843 177 167 140
64.2362 8.8784 142.8424 0.671 0.463 -0.578 187 177 152
4.5702 3.1508 130.1010 0.151 -0.932 -0.329 203 197 173
9.2223 -0.3475 167.7483 -0.396 -0.488 -0.778 194 184 157
9.6757 -0.3414 168.2597 -0.421 -0.359 -0.833 192 182 155
10.1084 -0.3051 168.4708 -0.292 -0.522 -0.802 192 180 154
10.5321 -0.2561 168.5549 -0.212 0.650 -0.729 190 178 152
75.5388 9.2981 166.7049 0.374 -0.865 -0.334 181 169 143
14.0710 1.6119 163.5702 0.824 0.269 -0.499 177 162 133
71.7108 10.7346 159.5390 0.167 -0.903 -0.396 172 161 133
70.2419 11.1547 157.2470 0.183 -0.901 -0.394 171 157 128
73.0535 11.1752 160.9746 0.440 -0.801 -0.407 173 159 130
64.5372 12.6511 133.9227 0.587 -0.633 -0.504 183 174 145
81.0417 11.7464 175.2039 0.846 -0.148 -0.512 172 158 131
61.3785 14.4077 127.9204 0.348 0.645 -0.680 166 157 126
4.3791 8.8946 174.4196 -0.924 0.294 -0.246 175 166 135
4.8100 8.9525 174.4133 -0.910 0.334 -0.245 175 164 132
42.6215 20.4160 134.5885 0.249 -0.745 -0.619 151 135 110
43.5308 20.5203 135.3859 -0.405 -0.428 -0.808 150 134 109
61.8433 22.3643 164.8322 0.123 0.283 -0.951 136 123 104
52.0080 21.6483 134.7219 0.487 -0.507 -0.711 131 120 102
57.2155 22.1758 164.0704 -0.394 -0.676 -0.623 140 127 110
60.9577 22.6567 164.7201 0.019 0.261 -0.965 129 116 100
61.4525 22.7170 164.9987 -0.054 0.339 -0.939 130 117 101
75.4488 24.4067 173.9192 -0.704 0.486 -0.518 136 121 102
53.4614 21.9736 172.1051 -0.639 -0.615 -0.462 144 129 106
54.6107 22.1458 170.6118 -0.170 -0.867 -0.468 142 127 106
52.9884 22.4309 135.8483 -0.319 -0.791 -0.522 120 108 96
54.1168 22.5500 137.8753 0.063 -0.924 -0.377 119 107 95
52.9686 22.3352 172.0475 -0.618 -0.643 -0.453 140 125 102
53.4929 22.4149 171.1261 -0.039 -0.882 -0.469 137 122 99
53.7156 22.4509 170.5529 0.067 -0.760 -0.647 137 122 99
54.1227 22.5042 170.5575 0.059 -0.761 -0.646 138 123 102
54.2796 22.5339 169.7959 -0.135 -0.864 -0.485 138 123 102
44.7143 21.9962 138.6127 -0.371 -0.417 -0.830 129 116 99
75.5299 25.7423 169.1186 -0.085 -0.688 -0.720 126 110 95
44.6768 22.3362 138.6601 -0.489 -0.544 -0.682 125 112 96
66.8103 24.9863 173.4095 -0.022 -0.892 -0.452 104 91 83
52.6735 23.4045 135.4553 -0.321 -0.745 -0.585 103 90 82
52.4078 23.3802 133.9721 0.231 -0.939 -0.255 103 90 84
53.8155 23.5451 136.7054 0.304 -0.918 -0.253 105 92 84
54.1283 23.5862 136.6759 0.280 -0.924 -0.261 106 93 87
75.4147 26.1425 169.0113 -0.123 -0.667 -0.735 120 104 91
76.5834 26.2895 169.8470 -0.006 -0.876 -0.483 123 107 94
34.2400 21.3474 132.3074 -0.882 -0.232 -0.411 159 142 112
67.0842 25.4491 173.2383 0.116 -0.846 -0.521 102 88 85
56.3754 24.1998 140.7559 -0.977 -0.012 -0.212 103 89 86
58.1817 24.4556 136.4375 -0.783 -0.382 -0.490 99 84 77
75.0897 26.5168 168.4352 -0.042 -0.636 -0.770 108 94 83
33.0732 21.5278 131.7117 0.800 -0.507 -0.320 155 138 108
74.2496 26.7929 180.8813 -0.582 0.372 -0.723 95 81 78
74.5636 26.8344 180.6175 -0.506 0.341 -0.792 96 82 79
74.0374 26.7932 167.9889 0.309 -0.038 -0.950 93 78 71
74.3925 26.8397 167.9038 0.280 -0.544 -0.791 96 81 74
74.9126 26.9069 168.1883 -0.041 -0.640 -0.767 99 85 76
59.4061 24.9607 132.8334 0.358 -0.858 -0.369 101 86 79
59.7547 25.0060 132.9109 0.307 -0.871 -0.383 101 87 78
32.9346 21.8396 131.3714 0.763 -0.529 -0.371 150 135 106
52.6659 24.4221 176.1313 -0.223 -0.831 -0.509 125 114 96
52.9643 24.4609 175.7406 -0.227 -0.832 -0.506 123 115 96
74.4945 27.2681 182.6803 -0.831 0.174 -0.529 92 78 75
74.7703 27.3039 182.3123 -0.829 0.178 -0.530 92 78 75
75.0356 27.3384 181.9233 -0.511 0.300 -0.806 93 79 76
32.4256 22.1009 130.8261 0.449 -0.703 -0.552 149 132 104
33.0402 22.1840 131.9622 0.860 -0.172 -0.480 146 131 102
35.2551 22.4783 134.2244 -0.272 -0.045 -0.961 142 126 101
74.6776 27.7018 168.8441 -0.152 -0.558 -0.816 87 74 68
76.0032 27.8728 168.2871 -0.013 -0.533 -0.846 88 75 69
32.5448 22.4474 131.4743 0.637 0.470 -0.611 144 128 102
62.3327 26.6541 132.8534 -0.012 -0.717 -0.697 85 74 70
2.1299 19.6203 177.5095 -0.156 0.935 -0.317 171 151 127
76.3493 29.1471 167.7631 -0.352 -0.753 -0.556 80 66 65
40.2426 25.8421 175.3351 -0.566 -0.475 -0.674 144 129 100
42.6740 26.1502 174.9868 0.403 -0.375 -0.835 132 117 94
39.0831 26.1046 174.2484 0.219 -0.560 -0.799 146 131 102
39.4746 26.1529 174.1366 -0.036 -0.492 -0.870 141 127 100
39.0406 26.5320 174.3394 0.272 -0.577 -0.770 139 125 98
45.1191 26.8572 138.0822 -0.375 0.645 -0.666 95 85 84
37.0313 28.8659 174.5426 0.694 -0.264 -0.669 126 112 86
27.4775 28.3630 171.0385 0.264 -0.810 -0.523 154 134 107
42.6608 29.3619 140.0074 -0.183 0.020 -0.983 107 98 91
31.2573 29.8367 174.1862 -0.165 -0.228 -0.960 142 124 104
43.7598 29.8214 139.4314 -0.340 0.092 -0.936 98 89 84
27.8584 29.7238 171.9047 0.073 0.559 -0.826 139 118 97
28.6743 29.8238 171.8279 0.025 0.564 -0.825 134 116 96
29.0689 29.8687 171.7186 0.130 0.604 -0.786 132 114 94
29.5650 29.9535 172.1655 0.022 -0.367 -0.930 129 111 91
21.4555 29.4526 174.1919 -0.709 0.036 -0.705 151 134 106
44.7531 30.7044 140.7627 -0.438 0.202 -0.876 100 91 84
44.7539 31.0608 140.9299 -0.564 -0.314 -0.763 103 94 85
48.2913 31.9735 149.6087 0.833 0.469 -0.294 95 86 77
44.0701 31.3290 141.0605 -0.017 0.599 -0.801 108 97 91
35.0151 30.6353 142.8468 -0.171 0.429 -0.887 136 112 100
35.3556 31.0437 143.0414 -0.038 0.592 -0.805 123 99 87
35.0257 31.3723 143.3028 -0.152 0.538 -0.829 116 89 80
38.7623 31.8338 143.1436 -0.956 0.087 -0.279 130 108 97
35.2058 31.8092 144.2168 -0.054 0.643 -0.764 105 76 68
27.6427 33.3700 175.9752 -0.270 -0.670 -0.692 59 29 31
36.7122 34.4413 174.9364 0.426 -0.563 -0.708 60 35 31
35.2786 32.2083 144.7120 -0.071 0.706 -0.705 88 59 51
23.7685 33.3212 176.0413 -0.027 -0.430 -0.902 65 34 32
24.1750 33.3635 175.9158 0.395 0.015 -0.919 63 31 32
12.9371 32.3166 174.9594 -0.014 -0.543 -0.840 155 135 110
13.8206 32.4522 175.2975 0.199 -0.154 -0.968 146 126 102
44.9493 34.3670 143.0320 0.689 -0.474 -0.548 102 89 80
10.3833 33.5324 172.5617 -0.408 -0.410 -0.816 149 129 105
10.8044 33.5854 172.5665 -0.507 -0.344 -0.790 145 125 101
48.0490 36.3085 144.7968 0.906 0.094 -0.412 94 80 71
8.0735 33.9806 171.2029 -0.222 -0.818 -0.531 156 138 114
8.0681 34.4786 172.0359 -0.715 -0.425 -0.555 154 136 114
8.4662 34.4984 171.7044 0.321 -0.751 -0.578 149 131 111
8.9511 34.6453 172.6703 0.529 -0.640 -0.557 148 127 108
14.1507 35.4355 174.2664 -0.338 -0.392 -0.855 52 31 26
14.4982 35.4099 173.4969 -0.554 0.494 -0.670 51 30 27
15.0541 35.5983 174.8286 0.046 -0.511 -0.858 52 31 28
13.7017 35.8439 174.6355 -0.208 -0.497 -0.842 52 31 28
14.0866 35.8539 174.2239 -0.007 -0.608 -0.794 52 31 28
14.0714 36.3264 174.6928 -0.601 -0.289 -0.745 51 30 29
5.7816 35.9932 172.9942 -0.354 -0.712 -0.606 153 135 113
8.3305 36.3319 173.2264 -0.028 -0.493 -0.869 114 92 79
9.2081 37.0043 174.5627 0.540 -0.557 -0.630 68 45 37
4.8361 36.7713 173.3710 -0.705 0.637 -0.312 162 144 122
8.2199 37.1861 173.3390 -0.380 -0.432 -0.818 88 66 55
8.1607 37.6066 173.3352 -0.563 -0.387 -0.731 76 53 45
8.6087 38.2298 174.6237 -0.741 0.110 -0.662 60 35 30
9.0324 38.2795 174.6007 -0.739 0.122 -0.663 57 32 28
9.9719 38.5291 175.8323 -0.695 -0.412 -0.590 55 29 28
8.7855 39.9545 174.4596 -0.537 -0.696 -0.476 58 30 27
9.2719 40.1201 175.3566 0.887 -0.252 -0.386 60 32 31
44.7659 40.8196 144.4505 0.854 0.114 -0.507 62 34 23
2.7777 39.6795 174.7169 0.506 -0.816 -0.278 146 119 108
0.9536 39.5916 172.3103 0.412 -0.834 -0.366 157 134 120
1.3887 39.7081 172.8249 0.348 -0.866 -0.360 152 129 115
2.2604 39.9199 173.6800 0.506 -0.816 -0.279 146 119 108
2.1858 40.2713 173.1363 0.443 -0.823 -0.356 137 108 100
1.6841 40.5425 172.3946 -0.167 -0.752 -0.638 146 117 109
4.6988 41.1028 173.9011 -0.075 -0.855 -0.513 68 37 34
1.1827 40.7911 171.5054 -0.453 0.775 -0.441 140 111 103
1.5946 40.8047 171.2241 -0.453 0.775 -0.441 127 98 92
4.6701 41.6164 174.5822 0.016 -0.892 -0.451 67 36 34
9.0124 42.3208 175.9288 0.396 0.780 -0.484 73 43 41
9.5062 42.5048 176.8804 0.500 0.746 -0.439 69 39 37
-0.6020 40.5765 168.3309 0.629 0.483 -0.609 169 146 132
-0.1782 40.7131 168.9725 0.650 0.551 -0.524 162 139 125
0.2378 40.7779 169.0798 0.587 0.671 -0.452 157 130 119
0.6829 41.0172 170.4769 0.273 0.870 -0.409 148 121 112
1.1190 41.1717 171.2426 0.221 0.898 -0.379 135 106 100
1.9733 41.3512 171.8128 -0.442 0.778 -0.446 97 66 63
2.3842 41.3635 171.5281 -0.439 0.781 -0.444 78 47 44
2.7999 41.4003 171.4240 0.009 0.953 -0.303 73 42 40
4.5830 41.9490 173.9270 0.016 -0.892 -0.451 65 34 32
5.0548 42.1442 174.9674 -0.291 0.572 -0.767 67 36 34
3.6307 42.1027 172.7501 0.669 -0.632 -0.391 64 32 33
4.1114 42.3568 174.2008 0.118 -0.897 -0.425 64 32 33
7.5024 43.3237 175.1217 0.496 -0.717 -0.490 77 46 44
7.9878 43.5153 176.0884 0.543 -0.618 -0.569 74 43 41
8.4734 43.6978 176.9882 0.332 0.609 -0.721 72 41 39
3.0819 42.8424 172.4309 -0.822 -0.135 -0.553 65 33 34
3.4642 42.7461 171.4097 0.679 -0.634 -0.370 68 37 35
3.8907 42.8263 171.6133 0.700 -0.624 -0.348 71 40 38
4.3298 42.9468 172.0948 0.702 -0.621 -0.349 73 42 40
5.2080 43.1685 172.9206 -0.660 -0.036 -0.750 80 49 47
7.8926 43.8551 175.5064 0.695 -0.503 -0.514 70 40 38
8.4051 44.1058 176.8566 0.350 0.635 -0.689 67 37 35
5.1623 43.6262 173.1872 0.290 -0.820 -0.494 82 51 49
7.7995 44.7671 175.9309 0.674 -0.543 -0.501 64 34 32
-0.4821 43.4915 171.1125 -0.317 -0.834 -0.451 110 85 78
-0.0686 43.4998 170.8291 -0.320 -0.832 -0.453 84 56 52
-2.2082 43.8643 172.1824 -0.113 -0.930 -0.349 156 138 128
-0.5451 43.8449 170.7076 -0.369 -0.799 -0.474 90 67 61
0.2951 43.9843 170.9626 -0.198 -0.808 -0.555 68 43 39
-0.2057 44.1182 169.4676 -0.494 -0.676 -0.547 70 45 41
0.2480 44.4745 171.4582 -0.229 -0.825 -0.517 66 41 37
-4.0386 43.9796 166.1886 0.803 0.570 -0.173 176 162 149
-3.6375 44.5094 169.2709 -0.515 0.549 -0.658 170 156 145
-3.2226 44.5483 169.2006 -0.550 0.304 -0.778 161 147 136
-2.8080 44.5974 169.1963 -0.616 0.139 -0.776 148 131 123
-2.3912 44.7210 169.6666 0.059 0.784 -0.619 131 114 106
0.5323 45.2020 170.4969 -0.343 -0.844 -0.411 63 35 34
-5.2796 43.7412 163.0424 0.553 0.820 -0.148 184 170 159
-4.4965 44.2309 165.5365 0.821 0.549 -0.156 178 166 154
-2.8623 45.1174 169.8888 -0.275 0.541 -0.795 138 121 113
0.4463 45.3902 169.1057 0.668 0.031 -0.744 54 28 27
0.8661 45.4855 169.3889 0.712 -0.061 -0.700 58 32 31
-5.3359 44.1720 163.2613 0.863 0.474 -0.176 184 170 159
-2.9188 45.4939 169.6720 -0.245 0.054 -0.968 132 115 107
-2.5026 45.5700 169.8351 -0.162 0.436 -0.885 107 90 82
0.3884 45.7861 169.0250 0.685 -0.046 -0.727 51 25 24
2.1058 46.3458 171.2227 -0.289 -0.882 -0.371 80 52 51
-5.3940 44.6261 163.6182 0.889 0.417 -0.190 185 171 160
-5.0093 44.9482 165.3078 0.974 -0.047 -0.222 181 167 156
-2.9750 45.8797 169.5190 0.655 -0.208 -0.726 123 106 99
0.7634 46.3780 169.8304 0.741 0.289 -0.607 75 51 51
1.6161 46.6196 170.6844 0.735 0.319 -0.598 81 57 57
-5.8373 44.8421 162.8073 0.831 0.538 -0.143 185 171 160
-2.6109 46.5663 170.8833 0.841 0.391 -0.374 89 72 65
1.5882 47.2126 171.7542 0.773 -0.081 -0.629 83 59 59
-5.8917 45.2483 162.8748 0.830 0.539 -0.145 187 173 162
-5.5072 45.4928 164.0558 0.808 0.556 -0.195 182 168 157
-5.1232 45.8310 165.7951 0.964 0.119 -0.237 176 162 151
-4.7259 46.0675 166.9196 0.955 0.129 -0.267 169 156 147
1.4918 47.3771 170.2939 -0.731 0.631 -0.261 82 58 58
-5.9492 45.6870 163.1335 0.828 0.540 -0.150 185 171 160
1.4356 47.7917 170.3142 -0.556 0.785 -0.273 84 60 60
1.8650 47.9255 170.7988 -0.582 0.778 -0.237 82 58 56
1.3997 48.3428 171.1105 -0.574 0.772 -0.273 82 58 58
2.6318 48.3898 170.5334 -0.796 0.544 -0.266 53 29 27
1.3861 49.0542 172.7855 -0.550 0.782 -0.294 79 55 55
-4.5479 48.0165 168.5273 -0.581 -0.642 -0.500 112 95 87
1.3628 49.7121 174.1219 -0.549 0.782 -0.294 79 55 53
-5.0137 48.3329 168.2916 -0.593 -0.634 -0.496 123 106 98
1.3493 50.4536 175.8827 -0.550 0.780 -0.300 76 52 50
1.7804 50.5234 175.9862 -0.767 0.552 -0.328 63 42 39
51.6398 51.5131 148.6212 0.171 -0.465 -0.869 64 44 35
60.1896 51.4444 142.6037 0.798 -0.070 -0.598 48 34 31
-5.0636 48.6477 167.7835 -0.785 -0.324 -0.528 102 85 77
0.8004 50.3169 173.1290 0.840 -0.229 -0.491 77 53 51
-6.7323 48.5730 166.2168 -0.498 -0.804 -0.325 185 171 162
-5.1220 49.1121 168.1041 -0.852 -0.248 -0.460 87 70 63
1.1962 51.0244 174.4117 0.796 -0.483 -0.366 60 39 36
-5.9777 49.1484 166.6329 -0.354 -0.804 -0.477 144 126 122
-3.5371 50.4197 171.8877 0.972 0.177 -0.154 61 44 37
59.9131 52.5378 143.1308 0.805 -0.294 -0.515 68 55 49
60.3789 52.6513 143.4432 0.842 -0.199 -0.502 62 48 45
-7.6515 49.2434 166.0169 -0.423 -0.859 -0.288 189 179 170
-6.0264 49.4835 166.2718 -0.258 -0.886 -0.384 135 116 112
-5.6190 49.5333 166.2809 -0.275 -0.879 -0.389 107 86 83
-5.2064 49.4972 165.8334 -0.376 -0.770 -0.515 77 53 53
-3.5937 50.8470 171.9552 0.978 0.140 -0.155 63 48 41
-1.0544 51.4569 173.5936 -0.776 -0.346 -0.528 87 62 58
60.3869 53.0250 143.5939 0.862 -0.246 -0.443 69 55 52
61.1570 53.3096 144.6168 0.731 -0.511 -0.453 55 41 38
-1.5379 51.7671 173.2935 -0.886 -0.183 -0.426 91 67 63
-1.1130 51.8548 173.4899 -0.814 -0.065 -0.577 86 62 60
-0.6849 51.9729 173.8427 -0.789 0.010 -0.614 77 53 51
0.5934 52.1926 174.2026 -0.563 -0.723 -0.399 50 30 29
1.4897 52.6537 176.0565 0.834 -0.420 -0.358 51 31 30
60.1802 53.2769 143.2381 0.865 -0.242 -0.440 78 64 61
61.5358 53.7453 144.8479 0.747 -0.488 -0.451 58 44 41
61.9876 53.8499 145.1154 0.553 -0.622 -0.554 54 40 37
-4.8990 50.1474 164.8038 -0.934 -0.191 -0.301 63 37 38
-2.0773 50.4469 164.6357 0.329 0.907 -0.262 91 72 66
-1.1770 52.1579 172.9045 -0.887 0.261 -0.382 78 57 54
-0.7441 52.3674 173.7213 -0.878 0.255 -0.404 71 50 47
-0.3250 52.3656 173.4579 -0.891 0.181 -0.417 64 43 40
0.0828 52.2595 172.6639 -0.907 0.142 -0.396 56 37 33
0.4918 52.2008 172.1137 -0.931 0.004 -0.364 51 33 31
56.5062 57.9717 167.8810 -0.168 -0.522 -0.836 45 26 22
-4.9524 50.5328 164.7396 -0.935 -0.185 -0.302 62 33 35
-0.8027 52.7676 173.6317 -0.829 0.367 -0.422 66 46 45
-0.3889 52.7021 173.0507 -0.884 0.229 -0.407 60 40 39
56.7245 58.3362 167.5596 -0.291 -0.485 -0.824 47 27 26
-4.9967 50.7435 163.7939 -0.950 -0.128 -0.284 59 29 31
-2.9845 51.9859 168.8543 -0.919 0.180 -0.352 92 77 72
-2.1796 51.4458 165.6630 0.677 0.235 -0.697 85 70 65
-0.4623 52.9109 172.0177 -0.928 -0.053 -0.370 55 35 34
-0.0650 52.7163 170.8043 -0.928 -0.053 -0.370 48 28 27
55.2801 57.9923 164.6650 0.162 -0.698 -0.698 45 25 24
55.7453 58.0933 164.8981 0.148 -0.731 -0.666 48 28 27
-5.0516 51.1627 163.9135 -0.949 -0.132 -0.286 59 27 30
-3.8601 52.0071 167.4164 -0.767 0.582 -0.269 76 57 53
-3.0395 52.4826 169.3013 -0.919 0.180 -0.352 91 76 71
-0.9467 53.1449 171.3740 0.697 0.166 -0.697 61 43 43
-4.6860 51.1767 161.7984 -0.262 0.937 -0.232 62 34 33
-3.0947 52.9816 169.7504 -0.919 0.180 -0.352 87 72 67
55.9644 54.8837 145.1242 0.017 0.329 -0.944 73 46 39
-9.8400 50.6572 160.2758 0.363 0.880 -0.305 199 188 182
-3.1509 53.2540 169.0893 -0.772 0.214 -0.598 85 70 67
0.3991 52.1441 161.6831 -0.859 -0.004 -0.512 54 36 36
55.7995 59.1976 164.4790 -0.376 -0.710 -0.595 47 27 26
-9.2823 52.1755 165.3638 0.763 -0.518 -0.387 195 184 178
-0.5373 56.7943 182.6389 0.925 -0.195 -0.328 42 24 24
-9.3022 52.3783 164.4128 0.642 -0.635 -0.429 193 182 178
-2.8536 53.7206 167.2155 0.759 -0.553 -0.343 67 51 51
-2.0370 53.8298 167.2816 0.507 -0.683 -0.526 49 35 34
52.7984 55.7832 146.1932 0.079 -0.042 -0.996 56 29 20
-2.4975 54.3168 167.9017 0.799 -0.495 -0.341 54 38 38
0.4600 57.6905 178.0558 -0.604 0.755 -0.256 51 29 31
-9.0102 56.2109 168.7328 -0.881 0.380 -0.280 78 62 63
-4.4194 61.9644 181.9980 -0.507 0.824 -0.252 44 26 26
58.9281 60.6468 143.1710 -0.633 -0.551 -0.544 72 42 42
