ply
format ascii 1.0
element vertex 76
property float x
property float y
property float z
property float nx
property float ny
property float nz
property uchar diffuse_red
property uchar diffuse_green
property uchar diffuse_blue
end_header
50.5086 -41.7224 206.5588 0.199 -0.047 -0.979 181 169 143
-9.6281 -40.2660 173.6531 -0.156 0.076 -0.985 211 203 182
62.3581 -39.9812 209.9417 0.474 0.676 -0.565 185 175 150
62.9094 -39.9903 210.2509 0.474 0.676 -0.565 186 176 151
73.0920 -34.1295 207.4998 0.540 0.488 -0.686 188 177 149
73.7401 -34.1596 208.0638 -0.634 -0.104 -0.767 189 178 150
-17.9693 -32.2733 172.8322 0.971 0.026 -0.240 209 196 188
70.6672 -27.2590 185.7826 0.924 -0.199 -0.326 177 168 137
-10.8111 -33.3567 200.0241 0.883 -0.459 -0.094 177 160 130
-10.7538 -32.6918 198.2798 0.923 -0.368 -0.113 174 157 127
-11.6651 -32.1263 196.8574 0.769 -0.392 -0.505 175 160 131
-11.2078 -32.1399 197.2818 0.950 -0.271 -0.157 172 157 128
69.0054 -25.7824 182.6079 0.927 -0.240 -0.288 171 160 130
-12.4329 -31.3297 193.0455 0.180 -0.916 -0.359 175 160 131
-13.6526 -30.8261 197.0455 0.908 -0.298 -0.294 178 162 136
-14.4939 -30.2059 194.8932 0.553 -0.790 -0.264 182 166 140
-16.7224 -26.2438 190.7839 0.552 0.704 -0.447 183 168 147
-17.1633 -25.2809 189.9413 0.438 0.701 -0.562 183 167 151
-17.0673 -24.2445 188.2418 -0.301 0.267 -0.915 183 166 150
-16.1934 -23.8832 182.9770 0.706 -0.291 -0.646 180 163 143
-90.6848 -24.9807 137.9508 0.026 -0.912 -0.410 223 217 221
-89.2397 -24.8426 136.9276 -0.603 -0.478 -0.639 240 234 238
-17.3827 -23.6870 186.2435 0.792 0.317 -0.522 182 169 153
47.9857 -18.0965 151.4420 0.775 0.387 -0.500 150 132 110
48.5400 -18.1049 152.1272 0.909 0.090 -0.408 149 131 109
49.0965 -18.1132 152.8114 0.910 0.076 -0.407 148 130 108
53.3511 -17.0153 156.5722 0.630 0.681 -0.373 141 126 107
52.1313 -16.8628 152.1778 0.614 0.569 -0.547 141 124 104
54.9629 -17.0593 159.2092 -0.078 -0.402 -0.912 141 125 102
26.1676 -16.5306 123.0388 0.516 0.784 -0.346 131 118 99
57.5684 -16.6718 161.6934 0.866 0.083 -0.493 146 130 105
54.8787 -16.2410 157.1430 -0.207 0.263 -0.942 141 126 105
55.3566 -16.2330 157.5327 -0.122 0.433 -0.893 143 128 107
56.1964 -15.8480 158.0139 0.694 0.413 -0.590 140 128 106
57.4642 -15.0184 156.9600 -0.036 0.713 -0.700 139 128 108
57.9304 -15.0071 157.3071 -0.110 0.644 -0.757 141 130 110
53.2954 -13.1981 147.7167 0.323 0.886 -0.333 97 88 79
61.8060 -13.1162 161.3383 0.297 0.854 -0.427 127 120 102
61.3000 -12.7444 160.0811 0.274 0.835 -0.477 125 116 101
60.8495 -12.9364 209.3724 0.963 -0.085 -0.255 77 66 62
45.0763 -12.1560 201.4105 -0.630 0.327 -0.705 88 78 76
45.3885 -12.1345 200.8269 -0.669 0.284 -0.687 87 77 76
43.9964 -12.0966 191.2702 -0.677 0.496 -0.544 87 77 76
44.8922 -11.7038 202.6342 -0.624 0.394 -0.675 81 71 69
41.1565 -10.4247 179.6463 -0.286 -0.938 -0.198 70 60 58
56.9237 -9.6481 150.8297 -0.574 0.720 -0.390 67 54 48
43.0145 -9.8851 209.0014 0.136 -0.982 -0.128 100 91 84
44.2082 -9.3639 201.9811 0.042 -0.991 -0.129 78 71 65
44.6623 -9.3429 201.9926 0.041 -0.991 -0.129 82 72 70
45.1444 -9.3202 202.1256 0.050 -0.990 -0.135 80 71 66
45.5091 -9.3047 201.7569 0.051 -0.989 -0.142 76 67 62
40.1341 -7.6616 170.9920 0.298 -0.949 -0.107 86 73 65
54.5885 -5.5026 142.8089 0.975 -0.152 -0.162 54 43 41
44.6457 -3.7080 117.8268 0.973 -0.165 -0.161 51 35 36
56.8351 16.1997 150.1023 0.960 -0.242 -0.143 42 26 27
-17.3403 21.4107 162.3587 0.057 -0.986 -0.156 45 23 26
60.3455 36.2589 193.1796 0.731 -0.682 -0.006 56 28 24
42.3319 24.5257 141.1266 0.769 -0.639 -0.008 101 77 65
51.4809 38.3112 189.2162 0.938 -0.346 -0.017 31 20 18
52.9651 34.7293 174.1007 -0.716 -0.608 -0.343 88 63 56
-24.9433 38.5093 183.3363 -0.611 -0.743 -0.272 75 46 48
53.3062 41.6343 191.5017 0.903 -0.428 -0.038 38 27 23
58.5681 45.4525 205.0744 0.865 -0.501 -0.035 57 42 37
52.8390 42.6065 188.6295 0.936 -0.348 -0.060 56 45 41
-18.7347 47.3143 180.7653 0.085 0.923 -0.375 33 12 19
-18.4280 49.9002 187.2121 -0.585 0.041 -0.810 42 19 27
-17.8468 49.8333 185.6136 -0.109 0.315 -0.943 49 28 33
-17.6582 49.4822 183.1901 0.287 -0.706 -0.648 49 29 31
-22.7264 52.9060 191.8930 -0.429 -0.864 -0.264 36 18 16
-24.7829 53.7295 192.8706 -0.617 -0.723 -0.310 118 97 92
-22.7585 51.9525 187.6842 -0.632 -0.712 -0.305 45 28 21
-22.4860 52.5655 189.4855 -0.458 -0.850 -0.261 38 20 16
-22.4705 51.4694 184.9100 -0.574 -0.762 -0.300 42 25 18
-16.3023 46.2610 166.1955 0.435 -0.859 -0.269 39 23 23
-15.5820 45.3088 162.3355 0.345 -0.878 -0.332 49 31 29
-15.1602 45.2224 162.0982 0.376 -0.844 -0.381 56 36 35
