ply
format ascii 1.0
element vertex 87
property float x
property float y
property float z
property float nx
property float ny
property float nz
property uchar diffuse_red
property uchar diffuse_green
property uchar diffuse_blue
end_header
-88.4704 57.5092 363.1337 -0.513 -0.826 -0.234 59 95 67
-13.1760 68.1912 373.9946 -0.480 -0.839 -0.255 119 117 96
-74.2376 84.9335 335.0384 -0.460 -0.816 -0.350 79 59 50
-15.8664 78.3502 348.0658 -0.689 -0.646 -0.329 177 170 144
24.3718 71.6326 329.9166 -0.263 -0.938 -0.227 27 173 124
22.2287 72.9819 321.7263 -0.243 -0.948 -0.207 46 209 156
22.3978 73.6965 323.8263 -0.260 -0.939 -0.227 35 187 138
33.6607 72.0970 349.1122 0.280 -0.917 -0.283 55 230 175
36.9608 71.4118 355.5948 0.136 -0.924 -0.357 45 213 164
33.5755 73.8241 348.0463 -0.270 -0.453 -0.850 52 235 181
37.7598 73.0133 354.6299 0.753 0.462 -0.469 17 172 130
-12.1562 82.7621 349.3456 -0.071 -0.832 -0.550 176 169 143
30.9330 75.1999 340.6778 0.685 0.349 -0.640 52 236 184
25.2944 76.4290 312.2258 0.194 -0.933 -0.302 41 105 105
64.1394 69.4101 329.3095 0.409 0.828 -0.383 196 195 193
65.9198 69.0785 331.3117 0.336 0.870 -0.361 196 195 191
66.7256 68.9355 331.3482 0.194 0.912 -0.361 195 194 190
-10.3614 83.3133 346.0193 0.100 -0.789 -0.607 186 179 160
14.0955 79.1987 307.5252 -0.160 -0.961 -0.224 21 79 57
24.2665 77.3874 309.2798 0.200 -0.931 -0.304 43 107 107
-58.1743 92.6134 348.9696 -0.925 0.363 -0.114 144 142 121
-48.9523 91.0309 333.0048 -0.505 -0.795 -0.337 129 124 105
-12.3589 84.5364 337.5410 0.540 -0.648 -0.537 189 182 163
37.8962 75.5716 358.1265 0.770 -0.593 -0.236 57 244 191
16.5660 79.5381 298.4592 0.434 -0.844 -0.316 10 165 125
18.0190 79.2747 300.3799 0.481 -0.822 -0.304 0 123 94
19.5581 78.9954 302.4969 0.481 -0.822 -0.304 11 117 97
21.1005 78.7156 304.5965 0.252 -0.918 -0.305 27 118 109
22.2413 78.5102 305.6554 0.215 -0.927 -0.308 40 119 116
-18.6213 86.4867 309.4341 -0.696 -0.617 -0.367 178 173 153
20.3231 79.5961 302.2671 0.223 -0.924 -0.310 30 121 112
21.4738 79.3916 303.3635 0.223 -0.924 -0.310 42 121 118
22.4336 79.2212 303.9676 0.202 -0.932 -0.302 47 111 111
60.1966 72.5324 307.2405 0.015 0.129 -0.991 199 198 196
-57.8787 94.2589 348.9377 -0.935 0.336 -0.117 169 167 146
35.3501 77.7602 352.7969 0.559 -0.794 -0.241 50 236 186
102.3762 65.9259 371.1235 0.010 0.865 -0.501 203 202 197
-98.9337 102.3795 349.8706 -0.129 -0.796 -0.591 219 225 223
-57.5411 95.0552 350.5942 -0.939 0.324 -0.113 177 175 152
37.2561 78.2934 355.1657 0.710 -0.668 -0.223 57 249 200
-98.6160 103.9796 344.9345 -0.058 -0.903 -0.425 223 229 229
-17.5700 89.4097 320.1766 0.703 -0.696 -0.147 191 189 166
5.2168 85.6872 354.0684 -0.551 -0.798 -0.243 68 55 46
31.5352 80.9145 341.5136 0.648 -0.726 -0.230 57 249 202
12.0447 84.5367 284.7208 0.467 -0.830 -0.306 9 167 134
-23.8352 92.1892 328.0992 -0.604 -0.788 -0.120 173 169 144
-57.0018 98.9712 335.0556 -0.863 0.488 -0.127 185 184 154
-96.2897 107.4804 331.7224 0.073 -0.939 -0.337 199 218 214
-79.2017 106.2571 338.6755 0.042 -0.978 -0.203 41 100 68
-44.9085 100.4486 348.3387 -0.147 -0.960 -0.238 126 121 101
-79.2102 107.0011 335.8186 0.028 -0.980 -0.199 40 99 67
-77.1646 106.8686 343.7487 -0.620 -0.752 -0.222 34 69 45
-18.6230 95.5886 311.5806 0.109 -0.961 -0.256 181 175 153
22.5514 88.4051 314.9117 0.712 -0.663 -0.231 75 252 223
-78.2011 107.6823 337.1385 -0.327 -0.921 -0.214 47 97 68
-44.7738 103.3360 334.8854 -0.212 -0.951 -0.223 127 125 100
-69.1456 107.7858 317.5022 -0.364 -0.915 -0.173 76 59 49
-44.9339 104.1065 332.9519 -0.198 -0.957 -0.212 134 132 107
29.8685 91.2730 342.8827 0.799 0.521 -0.299 10 97 65
43.2717 89.7630 343.3567 0.777 0.594 -0.208 201 218 228
-65.9525 108.1778 287.9451 -0.604 -0.782 -0.155 190 186 151
40.5270 91.9522 343.8659 0.736 0.656 -0.169 45 106 111
-66.6082 109.8984 278.6383 -0.484 -0.859 -0.167 190 185 153
-79.3659 113.6959 294.0792 -0.271 -0.949 -0.163 32 98 62
-77.9368 113.4786 294.7035 -0.284 -0.945 -0.162 36 70 45
-80.1742 114.3154 289.9841 -0.268 -0.950 -0.162 28 103 62
-78.8052 114.0738 289.9856 -0.230 -0.961 -0.154 44 95 64
-16.4076 105.1435 325.5811 -0.102 0.893 -0.438 180 178 153
-15.7495 105.0008 325.1288 -0.111 0.775 -0.622 180 178 153
-88.9598 115.1489 266.6644 -0.173 -0.953 -0.250 20 112 73
-79.3283 115.3717 276.1262 -0.525 -0.837 -0.152 37 93 58
39.6376 101.1242 352.1540 0.642 0.753 -0.143 244 255 255
37.7345 100.9675 345.2147 0.455 0.874 -0.169 217 231 244
-44.0870 121.2719 318.1699 0.297 0.924 -0.241 135 130 110
-41.9366 115.4649 255.0035 -0.129 -0.982 -0.139 166 164 141
-44.1221 127.2535 315.8640 0.734 0.556 -0.390 182 180 157
-42.3024 118.7483 221.7197 -0.581 -0.809 -0.087 70 58 44
-73.8604 146.7712 333.1538 0.611 -0.520 -0.597 38 125 90
35.8473 136.3602 356.5194 0.218 -0.975 -0.039 39 80 82
39.1580 136.8673 362.9955 0.204 -0.978 -0.040 47 88 94
38.8911 138.8331 363.7010 -0.131 -0.958 -0.254 38 85 95
-47.3286 144.1615 279.2229 -0.926 -0.353 -0.133 34 91 59
-70.7140 153.9910 270.7644 -0.980 0.126 -0.154 171 185 186
-63.9796 167.3266 315.7999 0.931 -0.156 -0.331 219 224 228
-41.2054 166.8702 302.0332 0.719 0.258 -0.646 31 101 75
7.0105 182.7231 364.9279 0.471 0.794 -0.385 165 184 182
-1.2588 147.5235 229.2919 -0.628 0.771 -0.102 196 194 195
