ply
format ascii 1.0
element vertex 59
property float x
property float y
property float z
property float nx
property float ny
property float nz
property uchar diffuse_red
property uchar diffuse_green
property uchar diffuse_blue
end_header
-5.9444 71.0214 343.4710 -0.586 0.789 -0.184 175 171 144
20.8590 76.2828 300.6584 -0.778 -0.329 -0.536 113 106 88
-87.3276 85.9253 382.9702 0.035 -0.953 -0.302 130 114 91
81.2614 75.2552 292.8073 -0.571 0.784 -0.243 209 207 208
78.6517 75.4132 297.8167 -0.512 0.831 -0.217 182 180 181
11.2535 84.4384 322.6367 -0.494 -0.547 -0.676 126 120 94
75.8138 75.3990 303.9660 -0.554 0.802 -0.222 198 196 199
-91.9204 92.6660 390.5243 -0.608 0.661 -0.439 152 154 130
16.9310 84.1315 329.9601 -0.631 0.143 -0.763 181 173 150
-0.8253 84.5563 353.6214 0.763 0.064 -0.643 177 172 143
-92.9712 96.2458 397.3900 -0.569 -0.639 -0.518 65 112 78
19.8404 88.2267 322.3878 0.352 -0.838 -0.416 175 168 142
44.9181 70.2061 388.6277 -0.755 0.625 -0.196 20 78 54
45.9039 69.1261 393.1288 -0.444 0.873 -0.203 24 113 83
20.4889 89.1968 320.7376 0.313 -0.857 -0.409 175 168 142
-85.0154 99.2936 383.0991 -0.669 -0.553 -0.496 59 116 81
-45.5504 95.5852 360.9368 -0.730 -0.500 -0.465 152 139 122
62.8562 69.9881 380.7607 -0.851 0.462 -0.249 209 213 224
-87.2716 100.4488 384.2880 -0.456 -0.775 -0.438 80 117 86
-51.2708 95.8938 370.0353 -0.727 -0.507 -0.462 65 51 38
-58.7640 95.9249 382.7783 -0.651 0.701 -0.292 73 59 48
17.1907 90.8659 327.8701 -0.049 -0.954 -0.297 174 167 139
-38.6089 103.6629 323.6104 -0.740 -0.496 -0.455 60 62 41
-71.6521 100.0898 384.3143 -0.471 -0.808 -0.353 65 109 74
-78.7296 104.7945 371.1511 -0.199 0.830 -0.521 60 116 81
11.6425 83.5879 388.1803 -0.568 0.805 -0.171 51 39 27
14.2929 84.1886 381.8390 -0.568 0.805 -0.171 59 49 37
17.1752 84.9143 374.5373 -0.585 0.788 -0.190 69 60 45
-78.5199 105.6680 371.0467 -0.382 0.811 -0.443 60 116 81
-81.4484 107.2893 375.4889 -0.477 0.756 -0.449 59 104 73
-3.4477 102.1034 314.3381 0.194 -0.827 -0.527 164 156 135
-73.1161 103.6366 392.5822 -0.350 0.918 -0.186 45 88 58
-86.4679 109.0041 382.1521 -0.762 0.385 -0.521 167 190 164
-84.3257 109.8345 380.1047 0.024 0.696 -0.717 87 122 92
-85.7691 108.8565 387.8327 -0.168 0.772 -0.614 53 128 87
-82.2328 111.4404 373.2594 -0.749 -0.349 -0.563 213 225 203
-83.8082 110.7589 379.4332 0.317 0.465 -0.827 85 121 93
-84.3135 110.4405 382.0312 0.840 -0.096 -0.535 54 103 71
-85.1337 110.0858 385.2451 0.283 0.328 -0.901 63 125 88
-5.4571 104.8047 318.9810 -0.668 0.684 -0.292 130 122 103
-4.5887 105.3992 319.0116 -0.537 0.801 -0.264 134 126 105
-75.1169 113.5528 362.1992 -0.615 -0.619 -0.489 160 182 161
-78.3746 111.9819 376.3945 -0.605 0.710 -0.360 45 126 85
304.7361 33.4910 386.8969 0.913 0.352 -0.208 180 181 183
-76.0868 114.7835 361.1648 -0.566 -0.687 -0.455 225 227 213
-76.8570 112.7328 375.4621 -0.644 0.667 -0.376 34 119 77
-71.3945 114.6862 367.2283 -0.633 0.657 -0.409 32 119 76
-6.5830 107.6183 327.5630 0.687 0.305 -0.659 170 162 139
-9.2046 108.6406 335.1350 -0.569 0.736 -0.366 177 169 146
-5.9629 108.9235 328.6795 -0.684 0.648 -0.336 190 182 159
-35.3514 120.0721 297.2439 0.136 0.781 -0.610 41 128 86
-33.9531 119.9860 295.8770 0.196 0.757 -0.624 36 125 81
1.1428 108.4337 345.4760 0.549 0.696 -0.463 150 144 118
2.7382 113.8596 320.1449 -0.822 0.275 -0.499 147 143 116
50.8369 158.3331 337.9658 -0.585 0.519 -0.623 172 197 194
48.9595 159.7962 344.0007 -0.742 0.439 -0.506 185 204 202
39.5259 164.2370 362.4610 -0.762 0.469 -0.447 110 142 127
34.0844 172.8088 342.6340 -0.893 0.174 -0.414 80 124 101
40.4153 171.4816 330.2938 -0.354 0.891 -0.284 156 180 167
