ply
format ascii 1.0
element vertex 318
property float x
property float y
property float z
property float nx
property float ny
property float nz
property uchar diffuse_red
property uchar diffuse_green
property uchar diffuse_blue
end_header
-0.6685 115.3467 346.6296 -0.185 -0.894 -0.407 47 39 20
25.4535 114.1783 324.9935 0.687 -0.673 -0.274 45 138 107
28.1946 112.7529 328.9545 0.429 -0.856 -0.288 119 241 220
-6.7600 118.2031 343.2068 0.640 -0.012 -0.768 164 162 137
8.1778 115.0498 342.7152 0.397 0.006 -0.918 59 38 17
8.9245 114.9248 342.5330 0.343 0.026 -0.939 65 43 20
27.1198 114.0990 327.3457 0.635 -0.718 -0.285 94 194 166
-63.8487 141.6004 293.5536 0.089 -0.971 -0.221 67 59 38
25.6383 115.3008 326.8405 -0.120 -0.809 -0.576 64 112 86
26.3778 115.1494 326.7928 -0.124 -0.809 -0.574 79 145 118
27.1974 114.9280 327.0024 -0.109 -0.802 -0.587 115 194 172
27.8265 114.8724 326.6037 -0.136 -0.819 -0.557 152 239 222
28.6983 114.6064 326.9761 -0.113 -0.825 -0.553 165 255 244
29.9960 114.4578 326.3189 -0.214 -0.828 -0.518 159 250 243
30.7317 114.3084 326.2657 -0.044 -0.870 -0.492 117 206 200
-86.5158 148.3359 288.1040 -0.101 -0.966 -0.238 65 128 107
-7.9628 118.3938 351.6246 -0.194 0.938 -0.288 172 168 143
25.6876 116.6432 323.9770 0.037 -0.851 -0.524 95 147 124
28.4145 115.7415 325.5000 0.114 -0.858 -0.500 180 255 243
29.2674 115.4914 325.8178 -0.188 -0.873 -0.450 180 255 249
30.3544 115.5140 324.5330 -0.049 -0.873 -0.485 129 206 200
31.1940 115.2751 324.8101 -0.049 -0.873 -0.485 60 136 134
33.6566 114.1517 327.7162 0.643 -0.631 -0.435 37 110 116
-90.3247 147.5548 299.6039 -0.187 -0.887 -0.423 196 204 206
-89.2275 149.0129 294.6011 0.159 -0.820 -0.549 108 123 128
-63.6251 148.1582 270.6330 0.089 -0.971 -0.221 74 66 47
-8.2988 117.3827 365.5959 -0.976 0.184 -0.121 166 162 133
-5.6850 119.2929 353.0155 0.204 0.845 -0.494 169 164 142
40.0976 112.5495 336.6121 0.791 -0.277 -0.546 174 193 208
-89.6999 150.0468 293.4119 0.291 -0.757 -0.586 204 212 214
-89.0500 149.7966 293.9692 0.288 -0.757 -0.586 114 129 134
-30.9817 128.3973 338.8779 -0.364 -0.891 -0.272 116 109 90
-89.5496 150.7313 293.3051 0.320 -0.740 -0.592 214 222 225
-81.5210 153.0263 272.2755 -0.286 -0.884 -0.369 21 103 63
-69.3943 148.4057 282.5591 -0.846 -0.362 -0.391 54 45 36
-49.9703 132.1823 344.9012 0.698 0.629 -0.344 183 176 148
-47.1218 130.4361 350.7527 0.643 0.434 -0.631 170 163 137
-45.9596 133.0711 335.7355 0.564 -0.811 -0.157 122 116 92
-29.8250 131.9511 323.2768 -0.686 -0.636 -0.354 175 168 149
-12.0085 121.6465 356.6662 -0.479 -0.405 -0.779 171 167 138
-6.9350 122.0520 348.8092 0.757 -0.510 -0.409 173 167 143
-1.4409 120.9932 348.0891 -0.351 0.901 -0.255 41 32 15
-0.4438 120.6020 348.9929 -0.339 0.903 -0.263 44 35 18
7.3261 119.8008 344.3549 0.415 0.734 -0.538 71 45 30
30.2991 114.8622 344.0018 0.260 0.944 -0.206 103 92 64
38.8255 114.9214 334.0327 0.840 -0.421 -0.342 137 163 176
-89.9607 151.9440 291.0610 0.099 -0.801 -0.590 220 222 219
-89.3824 151.4737 292.8733 0.175 -0.802 -0.571 218 226 229
-82.1092 153.1796 275.5469 -0.419 -0.821 -0.389 23 108 69
-49.8676 133.1826 343.8348 0.469 0.756 -0.458 183 176 148
-29.0099 132.6817 322.5398 0.278 -0.903 -0.327 160 153 135
-0.1093 121.2306 349.6678 -0.342 0.903 -0.260 47 38 21
7.4520 120.6426 344.0879 0.481 0.701 -0.527 73 47 30
38.6971 115.9206 333.0980 0.814 -0.455 -0.361 146 168 181
-49.8520 134.4216 341.5714 0.576 0.681 -0.452 183 176 148
-29.0565 133.7473 321.0008 0.210 -0.918 -0.337 159 152 134
9.7941 121.1289 343.1359 0.266 0.607 -0.749 101 74 47
11.7964 120.3824 344.7898 0.303 0.600 -0.740 113 84 50
33.1650 113.3496 357.4576 0.442 0.865 -0.240 104 83 52
39.9527 116.2776 333.9568 0.438 -0.512 -0.738 189 199 211
-49.0341 135.4279 339.5637 0.669 0.556 -0.493 161 154 126
-28.9112 134.5122 320.8217 -0.332 -0.852 -0.404 162 155 137
-2.9140 123.4612 349.9072 0.658 -0.353 -0.665 68 60 41
-1.8636 123.0172 351.0684 0.544 -0.480 -0.689 35 26 9
10.1230 121.7691 343.6995 0.646 -0.493 -0.583 108 81 52
39.9837 117.1509 333.4927 0.704 0.520 -0.484 192 202 212
-72.1044 152.0758 280.4039 -0.150 -0.920 -0.363 36 82 54
-58.8785 152.4129 262.7852 -0.179 -0.947 -0.266 184 175 142
-49.9142 137.1060 335.8536 0.343 -0.824 -0.451 183 176 148
-49.0275 136.6471 337.3073 0.501 0.271 -0.822 153 146 118
-39.8269 132.0568 351.4526 -0.559 0.761 -0.328 118 112 90
-6.0370 123.5018 357.9669 0.113 0.931 -0.347 175 167 144
-2.6318 124.1511 350.3529 0.294 0.208 -0.933 61 53 34
9.1383 123.0846 342.1515 -0.326 -0.738 -0.591 90 62 38
9.7311 123.1020 341.3491 -0.360 -0.735 -0.575 113 86 57
32.1014 115.6708 355.3332 0.505 0.830 -0.236 106 79 50
40.0296 118.0108 333.0733 0.232 0.934 -0.272 191 200 209
-71.9811 153.1266 278.1261 -0.198 -0.918 -0.343 36 84 58
-39.9747 133.5308 348.0997 -0.543 0.794 -0.273 119 113 91
-28.6330 136.0581 320.3801 -0.949 -0.262 -0.172 165 158 140
9.2013 123.9779 341.6385 -0.520 -0.691 -0.503 96 69 42
9.6659 124.1134 340.3254 -0.396 -0.739 -0.546 115 88 58
10.7887 123.6272 341.6647 0.099 -0.817 -0.568 119 90 58
-81.4423 156.1796 276.2765 0.205 0.893 -0.401 25 105 68
-80.7701 156.2780 274.9003 0.006 0.889 -0.457 24 101 65
-61.4431 155.6491 254.7619 -0.434 -0.852 -0.292 87 80 54
-60.8987 155.6797 253.9231 -0.416 -0.861 -0.291 132 125 97
-21.3523 135.5574 318.5626 0.780 -0.607 -0.149 114 107 88
9.0842 123.8782 346.9146 -0.869 -0.151 -0.471 68 41 22
9.4682 124.6770 341.9551 -0.280 -0.747 -0.603 99 72 45
9.9461 124.7971 340.6950 -0.405 -0.698 -0.590 111 84 54
34.8219 118.2411 347.0676 -0.911 -0.114 -0.397 243 241 229
34.9837 118.5640 345.0548 -0.408 0.781 -0.472 255 255 250
-80.6523 156.7620 275.7238 0.017 0.884 -0.468 25 102 66
-40.1157 134.6812 351.1732 -0.456 0.836 -0.305 114 108 86
-29.2322 142.9449 290.5866 -0.398 -0.882 -0.252 111 103 90
-1.9733 126.4391 350.7648 0.263 0.896 -0.357 52 44 25
9.7518 125.3628 342.3377 0.031 -0.583 -0.812 102 75 48
10.1244 125.5772 340.6534 -0.335 -0.643 -0.689 108 81 51
34.9893 118.1447 352.1192 -0.858 -0.170 -0.484 190 178 164
34.9097 118.6613 349.2749 -0.804 -0.341 -0.487 228 222 210
-3.3819 127.5613 350.8866 0.640 0.647 -0.415 67 60 41
-2.4531 127.2609 351.4519 0.640 0.647 -0.415 55 47 28
34.5838 118.9550 352.7968 -0.247 -0.193 -0.950 166 149 133
35.1894 118.9399 352.1218 -0.847 -0.213 -0.486 210 196 183
34.9904 119.5406 348.9030 -0.805 -0.318 -0.501 243 235 224
35.5640 120.4098 343.1609 -0.235 -0.906 -0.351 254 255 255
35.7716 120.6777 341.3527 -0.037 -0.933 -0.359 224 229 235
36.6791 120.4176 341.7123 0.206 -0.907 -0.367 162 170 181
38.8866 119.6094 343.6012 0.111 -0.911 -0.397 85 96 116
41.2882 118.6679 346.0153 -0.201 0.916 -0.348 80 94 120
-37.7577 137.8411 339.4673 -0.909 0.340 -0.242 171 165 143
-20.8503 137.7370 318.4932 0.808 -0.534 -0.249 111 104 85
-8.5907 129.2695 352.4333 -0.444 0.832 -0.332 173 165 142
-3.0930 128.2533 351.3663 0.688 0.373 -0.622 56 49 30
34.7795 119.7559 352.7839 -0.377 -0.031 -0.926 186 168 154
35.1698 119.9033 351.4224 -0.843 -0.181 -0.507 226 212 199
34.8123 120.6148 347.7119 -0.808 -0.176 -0.562 251 243 232
35.7831 120.7439 345.7163 0.426 -0.628 -0.651 254 255 249
35.2078 121.5973 341.4527 -0.084 -0.893 -0.443 249 253 254
41.6700 119.3162 346.5625 -0.145 0.920 -0.363 78 92 118
-37.4389 139.5625 333.6407 -0.664 0.663 -0.346 180 174 150
-16.0155 135.8277 328.0858 0.089 0.409 -0.908 177 171 145
-2.8304 128.9759 351.7141 -0.200 0.706 -0.680 50 43 24
34.3375 120.5984 353.3506 0.183 0.715 -0.675 164 143 126
35.0644 120.4894 353.0569 0.166 0.737 -0.655 206 188 174
35.3011 120.7494 351.2062 -0.874 0.112 -0.473 239 225 214
36.0110 121.5022 345.8148 -0.392 0.763 -0.514 254 254 252
35.7321 122.1254 342.4743 -0.433 0.540 -0.722 243 248 251
-37.4078 139.3965 339.3991 -0.909 0.337 -0.245 180 174 148
-37.2596 140.3144 333.6729 -0.659 0.660 -0.361 181 175 149
-7.8529 128.9952 363.2548 0.704 0.229 -0.673 172 166 142
-2.4222 129.5512 352.7704 -0.152 0.824 -0.546 49 40 23
-1.7294 129.5000 352.1685 0.478 0.490 -0.729 51 44 26
25.2252 125.8972 338.4711 0.912 -0.326 -0.249 119 84 56
33.7191 121.5765 353.3506 0.171 0.805 -0.567 142 120 99
34.5366 121.3988 353.3475 0.171 0.805 -0.567 181 164 148
35.1954 121.3401 352.8360 0.077 0.795 -0.601 219 206 190
35.2523 121.7289 350.4179 -0.863 0.138 -0.486 246 236 224
-37.2069 140.1301 339.6010 -0.802 0.392 -0.451 182 177 148
-37.1148 141.1249 333.3952 -0.500 0.488 -0.715 185 180 151
-30.1384 143.9462 306.8442 -0.563 -0.785 -0.257 188 182 156
34.3838 122.4617 352.2105 0.372 0.234 -0.898 203 187 171
35.0445 122.3988 351.7140 -0.122 0.394 -0.911 236 224 210
34.9688 122.8776 348.8872 -0.880 0.018 -0.474 254 246 233
35.5023 123.3153 345.4995 -0.273 0.864 -0.424 255 252 251
42.8765 121.6253 346.0038 0.175 -0.214 -0.961 147 160 176
43.7881 121.3741 346.3248 0.176 -0.228 -0.958 179 191 205
-37.0750 140.9813 339.1747 -0.748 0.470 -0.469 182 177 147
-36.9090 141.8334 333.6620 -0.500 0.488 -0.715 184 179 149
-30.8717 145.0482 305.5424 -0.558 -0.783 -0.277 182 177 148
9.3414 129.2660 349.0836 -0.576 0.768 -0.280 81 59 36
33.9639 123.2917 352.8482 -0.106 -0.693 -0.713 191 173 151
34.6657 123.1988 352.4754 -0.080 -0.697 -0.713 231 218 201
35.0927 123.3062 351.2312 -0.280 -0.599 -0.750 254 245 230
35.0734 123.7357 348.5913 -0.914 -0.183 -0.361 255 254 242
35.9009 123.9518 346.1310 -0.487 0.764 -0.423 254 253 251
41.7615 122.9379 344.4944 0.175 -0.532 -0.828 119 132 149
42.9261 122.5109 345.5685 0.193 -0.494 -0.848 163 176 192
43.9626 122.1743 346.2552 0.188 -0.526 -0.830 188 200 214
-37.0182 141.9543 338.0734 -0.818 0.507 -0.271 182 177 147
8.8742 130.1030 349.7072 0.440 0.109 -0.891 72 54 32
34.5797 124.2053 351.5582 0.199 -0.788 -0.583 236 225 207
35.1650 124.1938 350.8269 -0.200 -0.772 -0.603 253 247 231
35.0573 124.6795 347.9146 -0.914 -0.186 -0.362 255 254 242
35.6030 124.6904 347.0964 -0.421 0.791 -0.445 255 255 247
35.9204 124.8621 345.5785 -0.894 -0.117 -0.433 249 251 250
40.7699 124.1608 343.3363 0.308 -0.678 -0.668 79 94 115
44.8686 122.4776 348.3112 0.755 -0.463 -0.465 190 202 216
-6.5527 131.7536 366.0117 -0.666 0.535 -0.521 188 182 160
-5.0625 131.5994 364.9198 -0.206 0.743 -0.637 154 145 128
-4.5591 131.7676 363.1420 -0.180 0.800 -0.572 113 104 87
-2.5406 131.7251 360.5983 -0.652 0.730 -0.204 44 35 20
-1.9957 131.8315 359.1577 -0.655 0.728 -0.203 49 40 25
31.8445 125.8928 349.9533 0.298 -0.781 -0.548 141 116 86
33.2576 125.2786 351.9113 0.089 -0.807 -0.584 170 150 125
34.5512 125.1660 350.8280 0.265 -0.792 -0.550 235 228 209
34.6987 125.4648 348.7107 -0.164 -0.746 -0.645 251 248 231
35.8078 125.4716 347.1201 -0.883 -0.073 -0.464 254 255 249
-6.9647 132.5197 367.3078 -0.854 0.375 -0.360 182 176 152
-6.1833 132.4079 366.9270 -0.911 0.104 -0.399 174 168 146
-5.3149 132.2048 367.0169 -0.871 0.145 -0.470 163 156 137
-4.7039 132.2652 365.7584 -0.484 0.217 -0.848 119 110 93
5.2693 133.5895 343.0268 0.571 -0.776 -0.268 65 49 33
10.0959 131.4937 349.8064 0.585 -0.768 -0.259 97 77 52
32.0264 126.6981 349.9005 0.917 -0.194 -0.349 148 125 94
33.5085 126.0397 352.0788 0.914 -0.197 -0.355 178 162 136
34.3739 125.8267 352.2368 0.373 -0.610 -0.699 213 203 178
41.0908 125.7649 343.1238 0.437 -0.604 -0.666 99 113 139
42.2325 125.3594 344.1407 0.671 -0.480 -0.566 155 168 185
43.4269 124.9211 345.2973 0.671 -0.480 -0.566 189 201 215
-82.7860 167.9780 248.1731 0.217 -0.952 -0.215 208 217 212
-37.4583 144.7385 336.3407 -0.813 0.530 -0.242 180 175 146
-7.4606 133.3762 368.1707 -0.870 0.347 -0.350 178 172 148
-6.0159 133.2753 366.7579 -0.911 0.104 -0.399 147 141 119
-5.1776 133.1030 366.6892 -0.871 0.144 -0.470 130 123 104
43.7158 125.6438 345.5620 0.844 -0.145 -0.516 194 206 220
-82.6579 168.5628 248.0386 -0.386 -0.853 -0.352 214 220 216
-67.5105 167.1568 235.3175 -0.598 -0.751 -0.279 43 75 54
-67.0454 167.4376 232.7541 -0.488 -0.829 -0.272 39 60 43
-5.9411 134.2360 366.0951 -0.906 0.096 -0.412 127 121 99
-5.0917 134.0512 366.0926 -0.908 0.080 -0.411 105 98 79
44.2591 126.2027 346.5649 0.927 0.169 -0.335 199 209 221
-82.4594 169.4369 245.8244 -0.424 -0.828 -0.366 218 223 219
-5.1350 135.1241 364.8212 -0.902 0.094 -0.422 65 58 39
30.0188 130.6606 348.6895 -0.305 0.564 -0.768 114 88 61
31.1710 130.6294 347.1646 0.943 0.065 -0.326 156 137 107
34.0520 129.4107 351.2578 0.193 -0.268 -0.944 231 221 196
34.9785 129.1572 351.6144 0.209 -0.311 -0.927 251 246 226
42.0424 128.7718 343.6101 0.813 0.333 -0.478 168 178 203
30.0460 131.5701 348.1257 -0.362 0.243 -0.900 118 92 65
32.6180 130.9412 348.6059 0.917 -0.156 -0.368 208 194 168
34.2073 130.2386 351.1161 0.293 -0.574 -0.765 236 225 203
42.2425 129.5500 343.6192 0.639 0.080 -0.765 187 197 222
43.2842 129.2219 344.3307 0.563 0.163 -0.810 199 208 225
35.0475 130.9744 350.5612 0.147 -0.644 -0.751 255 252 235
42.5173 130.2818 343.8468 0.673 -0.008 -0.739 191 198 224
41.8707 131.2656 343.7123 0.681 0.049 -0.730 161 172 202
42.8737 130.9648 344.3115 0.681 0.049 -0.730 189 196 222
-65.9948 173.1154 213.6652 -0.814 -0.508 -0.282 36 76 50
41.7134 131.9477 345.0237 0.151 0.362 -0.920 122 138 172
42.2914 131.9099 344.3686 0.727 0.083 -0.682 164 178 207
-65.7424 174.6861 205.2311 -0.254 -0.937 -0.239 37 71 47
40.8977 132.7205 346.7861 -0.621 0.588 -0.519 62 86 124
41.5170 132.6586 346.2332 -0.076 0.136 -0.988 89 111 148
42.0833 132.6278 345.5316 -0.041 0.339 -0.940 136 155 188
42.5094 132.6807 344.4287 -0.085 0.470 -0.878 173 187 216
-80.1370 174.6833 233.2242 -0.119 -0.940 -0.320 208 219 213
-79.5792 174.6564 232.4946 0.101 -0.955 -0.280 193 210 200
28.9572 136.1808 346.6017 0.240 -0.592 -0.769 119 95 67
40.5960 133.4996 347.7047 -0.899 0.116 -0.422 65 89 127
41.1256 133.4919 346.8739 -0.786 0.370 -0.495 71 95 133
41.8482 133.3664 346.6271 -0.726 0.460 -0.511 106 128 165
42.3322 133.3836 345.6810 -0.667 0.559 -0.492 155 174 206
-78.3642 175.0900 231.3820 0.264 -0.932 -0.247 103 137 120
41.8695 134.2611 346.1017 -0.698 0.579 -0.422 127 145 181
42.4852 134.1973 345.5478 -0.700 0.571 -0.429 172 187 218
42.0028 135.0875 345.9090 -0.865 0.210 -0.455 137 153 187
42.5977 135.0344 345.2956 -0.852 0.253 -0.459 181 195 224
41.9522 136.0199 345.1740 -0.665 -0.210 -0.717 146 162 195
42.5931 135.9381 344.7012 -0.660 -0.185 -0.728 188 199 227
26.6088 140.6395 341.4821 0.685 -0.640 -0.349 111 92 62
42.8335 136.6995 344.8252 -0.332 0.245 -0.911 191 203 227
-74.9730 177.9449 229.0377 0.769 -0.558 -0.313 50 115 85
-74.4449 177.4363 232.5260 0.051 -0.962 -0.269 51 127 91
40.8581 138.8517 351.6322 -0.881 0.065 -0.469 48 77 109
43.0162 138.4802 350.7524 0.337 0.623 -0.706 130 145 174
41.0317 139.6700 351.5480 -0.882 0.071 -0.466 46 75 107
42.3693 139.4767 350.6566 0.475 0.580 -0.662 90 109 139
43.5847 139.0807 351.8419 0.375 0.636 -0.674 142 156 182
-76.8796 179.3680 229.9015 0.614 0.729 -0.302 214 221 214
41.5149 140.5856 349.9370 -0.155 0.414 -0.897 65 90 120
42.6583 140.2303 350.9183 0.456 0.536 -0.710 110 130 155
42.7427 141.0945 350.5698 -0.117 0.602 -0.790 131 149 173
41.5718 140.5214 366.8062 0.816 0.371 -0.442 86 116 118
42.3111 140.3972 366.4467 0.526 0.584 -0.618 71 104 113
-49.2754 165.1636 327.6662 -0.628 0.492 -0.603 52 65 48
28.7795 147.0639 338.3257 0.772 -0.592 -0.233 138 159 142
42.1141 141.4520 365.1790 0.611 0.562 -0.558 62 99 108
42.0290 142.1805 366.9262 0.580 0.601 -0.550 66 103 112
44.5953 143.1026 351.8406 0.388 0.567 -0.726 188 200 212
4.1355 162.0516 255.0431 -0.599 -0.773 -0.209 83 115 112
43.2172 145.3719 368.0132 -0.412 -0.457 -0.788 52 97 118
42.9712 146.4379 366.5939 -0.257 -0.490 -0.833 51 93 115
43.1568 147.0674 369.1910 -0.232 -0.200 -0.952 56 97 117
41.3147 146.3178 394.3835 0.943 0.085 -0.321 17 71 55
42.3707 146.0504 394.8390 0.943 0.103 -0.317 20 72 60
42.2703 148.2150 368.4480 -0.496 -0.403 -0.769 51 92 110
45.4820 147.9899 362.5895 0.732 0.311 -0.606 177 196 211
44.8848 148.9886 362.7120 0.751 0.263 -0.606 160 181 198
-46.4581 175.7724 284.4130 -0.941 -0.120 -0.316 45 108 77
43.4571 150.1655 362.8865 0.712 0.344 -0.612 118 144 161
44.2868 149.9885 362.8339 0.615 -0.192 -0.765 150 171 188
45.2249 149.7628 363.1097 0.563 -0.425 -0.709 177 195 209
-69.8474 188.7753 186.7914 -0.973 0.070 -0.220 52 107 84
41.6252 151.3290 364.4536 -0.840 0.186 -0.510 54 91 110
42.4247 151.1663 364.2944 -0.407 0.641 -0.651 75 104 122
43.1197 151.0500 363.8155 -0.034 0.593 -0.805 112 138 155
44.0215 150.8414 363.9760 0.708 0.326 -0.626 144 165 182
39.7179 150.6500 392.1594 -0.373 -0.747 -0.551 15 73 58
41.0246 152.3344 364.5845 -0.337 0.733 -0.591 59 100 120
41.7154 152.2194 364.0836 -0.316 0.721 -0.616 70 105 125
43.5185 151.8034 364.4001 -0.101 0.696 -0.711 136 159 175
44.4145 151.5980 364.5380 -0.015 0.638 -0.770 160 179 194
45.0281 151.5156 363.8178 0.424 0.232 -0.876 170 188 202
32.2562 155.6302 357.3644 -0.060 -0.953 -0.298 30 80 81
40.9931 153.2777 363.8306 0.211 0.541 -0.814 76 114 133
39.4810 154.3138 366.4869 0.063 -0.768 -0.638 44 93 110
40.2845 154.3293 363.6192 0.369 -0.044 -0.929 66 107 125
41.1044 154.1565 363.5268 0.220 0.023 -0.975 95 130 150
38.7354 155.3866 366.1689 -0.591 -0.343 -0.731 44 91 109
39.5008 155.2381 365.8803 -0.291 -0.670 -0.683 44 91 109
39.8395 155.2692 364.2424 -0.354 -0.666 -0.657 55 98 115
40.5696 155.1343 363.8614 -0.387 -0.644 -0.660 83 120 139
37.4413 156.6877 364.0707 -0.083 0.219 -0.972 48 93 112
38.7295 156.3199 365.4770 -0.662 -0.335 -0.670 49 94 113
39.4035 156.2083 364.9024 -0.432 -0.608 -0.666 55 98 117
40.0021 156.1273 364.0970 -0.366 -0.686 -0.629 70 108 127
40.6961 156.0063 363.6038 -0.372 -0.677 -0.635 95 130 149
39.1035 157.2563 363.2817 -0.206 -0.230 -0.951 69 110 128
39.8707 157.1042 363.0226 0.029 -0.426 -0.904 89 126 144
40.7349 156.9127 363.0719 -0.314 -0.482 -0.818 115 146 164
41.3453 156.8234 362.3296 -0.306 -0.644 -0.701 145 171 186
40.8717 157.7780 362.8484 -0.048 0.161 -0.986 136 165 181
24.2630 163.7861 368.2063 0.685 -0.569 -0.455 11 70 48
38.9549 161.6304 364.9194 0.576 0.584 -0.571 105 133 147
40.4767 162.1223 366.3762 0.632 0.540 -0.556 166 185 199
-4.9195 188.9557 321.2716 -0.358 -0.799 -0.483 29 91 66
-6.0835 189.9853 318.5428 -0.194 -0.799 -0.570 47 105 83
12.3353 188.1753 385.2269 -0.880 0.428 -0.205 76 114 103
4.9154 190.8293 392.2737 -0.989 0.108 -0.101 75 111 99
6.9267 190.3460 388.6630 0.965 0.082 -0.250 97 133 121
7.7220 190.1655 388.1011 0.952 0.204 -0.229 113 149 137
7.3131 191.2300 389.4734 0.953 0.157 -0.258 120 145 139
-7.5409 194.0898 311.1613 -0.026 -0.728 -0.685 170 186 183
-6.8395 193.9343 311.0237 -0.066 -0.765 -0.641 176 192 189
1.7905 195.2396 386.1010 0.032 0.941 -0.338 170 179 178
-9.0955 198.2519 287.0155 -0.074 0.466 -0.882 193 184 189
