ply
format ascii 1.0
element vertex 50
property float x
property float y
property float z
property float nx
property float ny
property float nz
property uchar diffuse_red
property uchar diffuse_green
property uchar diffuse_blue
end_header
43.1435 -44.7919 211.4252 0.945 -0.054 -0.323 183 171 145
57.8415 -42.8878 202.9945 0.435 0.631 -0.642 187 177 152
49.5086 -42.0181 202.1013 0.860 -0.311 -0.404 175 161 134
58.2606 -40.8360 198.9653 -0.755 -0.324 -0.571 183 171 145
50.0292 -41.0551 202.5518 0.943 -0.036 -0.332 171 157 130
71.6375 -32.6131 201.1890 0.180 0.400 -0.899 169 155 126
-9.7554 -37.0110 169.7769 0.954 -0.121 -0.273 180 169 139
-15.8263 -29.9432 196.1817 0.408 -0.397 -0.822 176 160 135
-15.0887 -25.8360 178.8869 0.510 -0.835 -0.206 171 153 133
-13.9736 -27.7164 137.5718 0.942 -0.123 -0.311 181 162 147
65.0128 -17.8585 179.2963 -0.041 0.898 -0.438 92 81 75
65.3052 -17.8659 179.0619 0.452 0.563 -0.692 97 87 78
64.3512 -16.8100 177.7220 -0.031 0.881 -0.473 76 63 57
65.4326 -16.7723 177.5752 -0.073 0.723 -0.687 84 71 65
63.6475 -16.6183 175.9404 -0.173 0.850 -0.497 75 62 56
64.0353 -16.5965 175.9707 0.068 0.854 -0.516 75 62 56
64.0448 -16.6933 175.0285 -0.077 0.834 -0.547 79 66 60
34.6239 -17.0084 177.5687 0.925 0.191 -0.329 108 99 92
33.3326 -10.3471 186.5150 -0.554 0.228 -0.801 136 118 106
34.1113 -10.3585 186.1953 -0.427 0.292 -0.856 134 117 107
41.4166 -10.8644 180.3451 0.748 -0.664 -0.000 92 81 75
27.8555 -18.3349 128.9153 0.509 -0.860 -0.040 99 88 82
34.9903 -13.7524 156.3921 0.792 -0.610 -0.015 99 89 80
38.4557 -7.6024 172.5398 -0.836 0.267 -0.480 92 78 69
40.3588 -7.7893 170.9765 0.261 -0.847 -0.463 97 83 74
40.9411 -7.6382 171.7466 0.591 -0.733 -0.337 95 81 72
40.4241 -7.5745 169.8485 0.293 -0.859 -0.419 92 75 67
39.9099 -7.2707 169.4001 0.212 -0.871 -0.442 88 71 63
40.2420 -7.2876 169.2283 0.297 -0.858 -0.418 88 71 63
-10.1018 9.0036 202.5601 0.841 0.399 -0.364 77 47 45
-16.0077 17.0370 190.9356 -0.644 0.170 -0.746 56 41 38
-15.4623 17.0123 189.1854 -0.560 0.367 -0.743 46 30 30
-15.0047 17.0572 189.3074 0.183 0.335 -0.924 47 31 31
-15.4339 17.2054 188.2407 -0.751 0.295 -0.590 39 23 23
54.2543 13.7481 166.4700 0.732 -0.650 -0.204 57 41 41
-17.5615 18.1201 183.7114 0.861 -0.104 -0.497 50 32 32
-17.6765 19.2896 184.5287 0.820 -0.571 -0.036 41 23 23
-17.6535 19.5332 183.8367 0.820 -0.571 -0.036 41 23 23
-17.3009 19.9865 185.2606 0.840 -0.541 -0.039 38 22 23
-12.4985 8.5107 148.4709 -0.189 -0.741 -0.645 54 32 34
-17.6443 19.8340 183.3372 0.821 -0.570 -0.037 39 20 22
-17.2734 20.2029 184.4827 0.837 -0.545 -0.039 37 21 22
-17.6226 20.0788 182.6688 0.850 -0.525 -0.040 36 20 21
-17.2287 20.3401 183.4674 0.849 -0.527 -0.040 36 20 21
-17.6817 21.3435 182.3539 0.941 -0.314 -0.124 40 24 25
-18.2939 21.1413 177.6811 0.825 -0.564 -0.042 34 18 19
62.1448 28.1586 189.9400 -0.237 -0.943 -0.232 65 37 34
61.3945 28.6928 190.2225 -0.261 0.391 -0.883 59 29 27
60.6378 28.8900 187.0152 0.811 -0.342 -0.476 57 29 26
59.5623 28.2304 183.9629 0.944 -0.278 -0.177 55 27 26
