ply
format ascii 1.0
element vertex 256
property float x
property float y
property float z
property float nx
property float ny
property float nz
property uchar diffuse_red
property uchar diffuse_green
property uchar diffuse_blue
end_header
-64.4964 145.1701 280.7593 -0.456 -0.808 -0.373 77 64 48
-32.8701 116.6037 364.1831 0.605 -0.769 -0.208 165 164 134
-73.9583 145.1782 291.2779 -0.243 -0.041 -0.969 34 91 59
-32.8383 118.0173 362.0417 0.590 -0.782 -0.198 161 157 130
25.9543 114.9185 324.6640 0.204 -0.828 -0.522 75 218 188
39.5974 109.0911 335.7961 -0.583 0.394 -0.710 198 206 219
-49.1549 127.3069 342.9064 0.539 -0.775 -0.330 177 171 145
-32.6311 118.7938 362.2059 0.412 -0.883 -0.226 152 148 121
-5.5288 117.4870 344.3282 -0.262 0.940 -0.219 160 155 133
-4.6946 117.2346 344.6084 -0.265 0.939 -0.221 136 131 109
-3.9098 117.0713 344.5817 -0.230 0.945 -0.230 90 85 63
-3.1958 117.0312 344.1327 -0.231 0.945 -0.230 57 50 31
-2.2516 116.5904 345.0568 -0.197 0.953 -0.230 47 40 21
29.5848 114.4399 326.4651 -0.806 0.022 -0.592 105 243 228
32.1280 113.6006 327.5922 -0.433 -0.338 -0.836 11 116 109
33.3816 112.8728 329.3770 0.025 -0.827 -0.562 31 117 118
36.3544 110.9278 334.4671 0.860 -0.256 -0.442 56 104 118
38.1355 109.6492 337.9604 -0.605 -0.246 -0.757 90 123 140
-63.8892 150.2809 268.0016 -0.439 -0.832 -0.338 74 61 45
10.0249 115.4054 342.4613 -0.398 0.856 -0.331 106 85 58
23.5137 116.8406 325.2354 -0.073 -0.797 -0.599 48 84 58
26.3680 116.3192 324.8498 0.893 -0.064 -0.445 96 223 194
30.4739 115.0523 326.3373 -0.173 0.950 -0.258 59 181 170
32.0760 114.5977 326.7607 0.060 0.961 -0.269 16 115 110
33.3287 113.8745 328.5447 0.154 -0.640 -0.753 33 114 117
39.6814 110.2650 337.3626 -0.030 -0.651 -0.758 187 198 216
40.1897 110.3714 336.5066 -0.242 -0.548 -0.801 198 200 215
40.8456 110.3189 336.1521 -0.720 0.240 -0.651 199 197 210
-73.4290 147.5638 289.6497 -0.456 -0.354 -0.817 34 93 61
-67.7903 148.7887 279.8849 -0.161 -0.739 -0.654 66 47 41
-63.7224 151.4103 265.9091 0.427 -0.389 -0.816 69 57 41
-7.9472 117.7208 352.0204 -0.980 0.082 -0.184 173 169 144
34.1052 114.6176 328.0115 0.855 -0.384 -0.348 42 105 114
39.8043 111.0934 337.1364 -0.017 -0.790 -0.613 193 202 219
40.6094 110.8850 337.2709 0.058 -0.804 -0.592 196 198 213
41.1266 110.9779 336.4529 -0.283 -0.698 -0.658 200 198 211
-90.2664 151.6168 290.8377 -0.650 -0.650 -0.393 223 219 218
-89.0436 151.0108 292.2091 -0.624 -0.670 -0.401 216 217 219
-82.4097 153.2661 277.3291 -0.879 -0.054 -0.473 37 119 83
-8.1178 116.4598 360.6222 -0.990 -0.001 -0.144 171 167 140
-6.1118 118.1147 352.2046 -0.657 0.168 -0.735 170 164 142
34.0651 115.5956 327.2356 0.843 -0.405 -0.354 42 105 114
38.8069 112.4620 335.7110 -0.059 -0.807 -0.587 170 187 205
39.8657 111.9854 336.7050 0.022 -0.821 -0.570 192 199 217
40.5834 111.8676 336.5520 0.008 -0.851 -0.524 196 198 213
41.6087 111.4307 337.4153 -0.027 -0.867 -0.497 199 197 208
-82.2805 153.8587 277.5108 -0.878 -0.043 -0.476 35 119 85
-80.7029 152.2797 282.5387 -0.460 0.832 -0.310 22 104 64
-72.9733 149.7106 286.1614 -0.542 -0.711 -0.448 29 90 56
-46.5569 128.2779 349.9941 -0.963 -0.181 -0.199 148 142 116
-33.2768 126.8161 344.2139 0.423 -0.882 -0.208 125 119 97
-31.5535 123.6365 355.6221 0.372 -0.904 -0.210 128 122 100
-8.6211 114.2778 373.4323 -0.981 -0.109 -0.162 164 160 131
-8.6369 115.7989 367.2609 -0.922 -0.332 -0.199 168 164 137
-5.5752 118.2923 354.4185 -0.276 -0.881 -0.383 169 163 141
38.6324 113.5961 334.4861 -0.429 -0.587 -0.687 177 193 209
42.2116 111.7652 338.7712 0.033 -0.907 -0.420 197 195 206
-89.2480 152.8900 290.4380 -0.664 -0.654 -0.361 219 218 216
-82.2376 154.2022 278.7964 -0.730 0.379 -0.568 37 121 88
-70.9349 153.4648 271.7434 -0.962 -0.025 -0.272 39 79 53
-60.2305 155.2264 254.9620 0.097 0.935 -0.340 150 144 122
-59.6402 155.1131 254.9009 0.081 0.936 -0.343 185 177 154
-42.8107 126.7151 356.5074 0.240 -0.947 -0.211 122 115 96
38.6043 114.5720 333.7575 -0.689 -0.069 -0.722 186 199 215
-81.9796 155.1667 277.3391 -0.794 0.190 -0.578 41 122 90
-81.2274 155.3408 275.9393 -0.866 -0.198 -0.460 31 115 79
-70.0033 154.9761 267.3372 -0.939 0.105 -0.328 34 62 40
-36.6506 133.6726 325.6363 0.903 0.310 -0.297 142 135 116
-8.1645 117.3260 367.7624 -0.876 -0.424 -0.229 173 167 141
-6.8705 121.6239 348.7705 -0.496 -0.452 -0.741 173 167 145
10.6448 118.8099 344.6574 -0.779 -0.337 -0.529 108 81 51
-49.4120 132.7162 344.5229 -0.533 -0.775 -0.339 180 173 147
-1.9229 121.4391 348.5216 -0.744 -0.507 -0.436 44 35 20
-0.9395 120.9671 349.6033 -0.574 -0.198 -0.795 50 38 24
9.8888 119.9791 343.8820 -0.771 -0.448 -0.453 108 81 52
31.0137 114.7271 346.6473 0.175 0.971 -0.161 105 99 77
-49.2998 134.0316 342.3440 -0.503 -0.795 -0.338 175 168 142
-46.8692 133.1821 343.7023 -0.828 -0.491 -0.271 150 145 116
-19.7639 132.8760 320.0544 0.620 0.738 -0.266 161 157 130
-2.0915 121.6839 351.1547 -0.744 -0.432 -0.510 45 36 21
-1.8707 122.4337 351.3221 -0.745 -0.354 -0.565 49 37 23
-0.6009 122.6217 349.3374 -0.229 -0.808 -0.542 55 43 29
9.5510 121.6118 344.2133 -0.939 -0.142 -0.314 108 78 50
41.3765 116.7480 335.4077 -0.101 0.971 -0.214 198 195 204
-28.7401 135.7671 322.6032 -0.812 -0.385 -0.439 172 165 147
-50.6079 138.8614 333.2447 -0.290 -0.862 -0.415 185 178 150
-28.6792 136.7874 321.4579 0.342 -0.900 -0.271 174 167 149
-3.1739 124.5014 350.8494 -0.814 0.376 -0.443 51 42 25
35.4529 117.2883 345.6265 -0.352 -0.847 -0.399 231 231 231
36.0084 117.3558 344.8039 -0.306 -0.861 -0.407 182 187 191
-50.5183 140.3005 330.3342 -0.418 -0.748 -0.515 180 173 145
-40.2601 133.8262 349.0396 -0.848 0.467 -0.250 120 113 94
-21.1394 135.9808 321.1626 -0.948 0.002 -0.318 111 104 86
-20.4437 135.9073 320.8181 0.371 0.888 -0.271 116 110 88
-2.9986 125.3242 350.7442 -0.877 0.066 -0.477 47 38 21
35.2799 118.4460 344.3084 -0.740 -0.569 -0.359 218 218 220
38.4108 117.1444 347.0420 0.005 -0.813 -0.582 85 98 117
-51.2992 142.7769 323.5828 -0.800 -0.022 -0.600 182 173 144
-50.3264 140.9344 330.8534 -0.844 0.138 -0.517 176 169 141
-40.0046 134.3451 350.2065 -0.874 0.418 -0.248 118 112 90
-21.0433 136.8703 320.5253 -0.948 -0.009 -0.318 111 104 86
-2.8416 126.1756 350.5282 -0.877 0.071 -0.475 47 38 21
-2.1081 126.1109 350.1043 -0.456 0.266 -0.849 47 38 21
9.4742 124.0901 347.8623 -0.967 0.118 -0.225 89 63 38
34.9728 117.8091 351.0957 -0.876 -0.277 -0.394 252 245 237
34.8139 118.6255 347.6097 -0.624 0.637 -0.452 255 253 249
34.9985 119.0762 345.4210 -0.902 -0.319 -0.290 248 247 245
37.9462 118.5876 344.7358 0.650 0.183 -0.737 89 102 121
38.8845 118.2633 345.2702 0.745 -0.212 -0.633 80 98 120
-83.7483 166.3054 252.9110 -0.928 -0.184 -0.325 215 221 217
-66.6953 167.1442 232.3757 -0.349 0.856 -0.381 37 62 43
-48.6748 141.7234 329.2514 -0.491 0.619 -0.612 120 114 88
-2.7340 127.1032 350.0140 -0.872 0.042 -0.489 50 41 24
35.0309 118.0908 353.5329 -0.952 -0.052 -0.302 238 229 220
34.8958 120.1573 344.3511 -0.598 0.702 -0.386 250 250 250
-37.7894 137.4852 341.3472 -0.985 0.011 -0.173 172 166 144
-37.4655 138.8956 334.5987 -0.981 0.005 -0.195 177 171 149
35.9186 121.3265 341.7393 -0.191 0.937 -0.292 145 153 166
39.0645 120.0245 344.5460 0.775 -0.046 -0.631 80 96 119
-37.7344 138.7068 339.4343 -0.985 0.011 -0.173 174 168 144
34.7998 119.6816 354.1880 -0.894 -0.265 -0.360 230 220 210
35.3162 120.4373 350.1871 -0.951 -0.087 -0.295 255 253 250
-83.2120 169.7061 245.0353 -0.942 0.055 -0.330 219 218 214
-82.8720 169.0834 247.5911 -0.944 -0.137 -0.299 216 218 217
-82.0969 169.3909 245.3702 -0.920 -0.143 -0.365 219 225 225
-37.4329 139.0775 341.1933 -0.977 0.129 -0.170 177 171 145
34.1925 120.6568 354.1908 -0.702 -0.595 -0.392 211 195 180
35.4058 121.3354 349.7957 -0.951 -0.093 -0.295 254 253 249
35.8051 122.1654 345.5222 -0.814 0.147 -0.561 230 235 241
-82.4981 170.1754 244.8721 -0.945 -0.134 -0.299 220 222 221
-81.8500 170.2170 244.0092 -0.920 -0.154 -0.361 219 225 225
-42.2272 135.2195 368.1618 -0.841 0.041 -0.539 116 110 88
-37.2319 139.7973 341.4512 -0.981 0.091 -0.168 181 175 149
36.0586 122.8882 345.7320 -0.912 -0.132 -0.388 217 224 232
7.6575 129.2377 348.9580 0.007 -0.934 -0.358 72 49 31
8.6299 128.8424 349.8297 -0.206 -0.900 -0.385 79 57 34
9.4651 128.6248 349.9974 -0.178 -0.908 -0.380 94 68 45
35.2235 122.8721 350.6026 -0.946 -0.137 -0.294 255 254 247
36.1285 123.7897 345.2867 -0.807 -0.026 -0.590 205 213 224
-40.1161 136.4856 368.3617 -0.870 -0.423 -0.253 131 125 103
8.0217 129.8113 349.8290 0.028 -0.930 -0.366 76 54 33
8.9899 129.4260 350.6668 -0.030 -0.925 -0.379 87 65 42
31.9114 124.0463 352.4584 0.266 -0.486 -0.833 156 132 106
41.7747 123.4146 345.1132 -0.668 -0.148 -0.729 176 187 205
42.6080 123.1992 345.2739 -0.623 -0.262 -0.737 192 201 216
43.8964 122.5719 346.9409 0.015 -0.770 -0.638 193 201 212
44.3546 122.6976 345.8524 -0.212 -0.853 -0.478 190 197 205
-39.0186 136.9667 369.1624 -0.940 -0.262 -0.220 157 151 127
10.7689 129.8980 350.5559 -0.048 -0.942 -0.332 109 84 54
30.4290 125.8987 349.1026 0.833 0.273 -0.481 131 107 79
31.7141 125.2375 350.9575 0.552 0.497 -0.670 163 143 118
32.9876 124.5945 352.7370 0.293 0.439 -0.849 198 183 160
33.8736 124.3385 353.0407 0.307 0.480 -0.822 232 221 201
36.1644 125.1095 346.8367 -0.643 0.682 -0.347 225 232 242
41.0712 124.4689 344.7295 -0.148 0.531 -0.834 148 161 178
41.9137 124.2449 344.9239 -0.178 0.443 -0.879 188 197 214
42.8177 123.9659 345.3211 -0.188 0.479 -0.857 196 204 217
43.6453 123.7565 345.4597 -0.535 -0.582 -0.613 194 203 212
45.3330 122.7806 348.4213 0.102 -0.867 -0.487 190 197 205
-1.1446 131.4183 360.0486 -0.622 -0.664 -0.415 58 46 32
9.0471 131.4263 349.0070 -0.668 0.694 -0.270 103 81 57
10.9956 130.6546 350.7135 -0.221 -0.905 -0.365 109 84 54
34.1590 125.0527 353.3640 0.274 0.562 -0.781 233 226 207
35.0048 125.4358 350.5593 -0.755 0.567 -0.329 255 254 242
36.0150 125.6440 348.4408 -0.617 0.733 -0.286 244 249 253
-79.1888 174.7790 233.0079 -0.170 0.956 -0.238 217 219 216
-4.5767 132.3702 363.3521 -0.858 -0.400 -0.322 51 42 25
-3.7612 132.2177 363.2224 -0.696 -0.552 -0.460 46 37 22
-2.8156 131.8721 363.9157 -0.608 -0.609 -0.509 48 39 24
42.2596 125.8428 344.7741 -0.285 0.718 -0.635 195 202 220
-77.9646 175.1119 232.8131 -0.121 0.964 -0.238 191 202 198
-7.1780 133.0706 367.0930 -0.372 0.809 -0.455 153 147 125
-4.8359 132.8082 365.8277 -0.863 0.341 -0.373 56 47 30
42.2794 126.7763 344.1877 -0.813 0.182 -0.553 198 205 223
-77.2494 175.6527 232.1193 -0.542 0.808 -0.232 134 151 143
-4.9019 134.0403 364.0840 -0.884 0.389 -0.259 50 41 26
42.6316 127.4175 344.7117 -0.818 -0.225 -0.529 198 203 222
-73.5103 176.6129 225.8002 -0.877 0.329 -0.351 50 124 87
30.3520 130.2746 348.1047 0.427 -0.546 -0.720 141 124 98
32.2132 129.6702 349.1251 0.600 -0.415 -0.684 219 211 188
42.9035 128.1311 344.9661 -0.867 -0.146 -0.477 197 203 219
-75.8246 176.7432 230.6388 -0.726 0.587 -0.357 51 88 70
-73.4520 176.9483 226.8327 -0.731 0.041 -0.681 48 122 85
30.4684 131.1385 347.8022 0.185 -0.701 -0.689 155 137 113
31.4171 130.8194 348.3861 0.597 -0.504 -0.624 202 188 162
32.4151 130.4562 349.1449 0.639 -0.448 -0.625 231 224 198
35.6232 129.1845 352.1315 -0.188 -0.179 -0.966 247 253 243
28.7220 132.6096 346.4355 0.061 -0.818 -0.571 125 101 73
29.5423 132.4090 346.5457 0.326 -0.752 -0.572 140 120 96
34.9210 130.2468 351.7747 -0.293 0.081 -0.953 253 255 237
36.4744 129.9418 351.5857 0.240 -0.040 -0.970 239 249 250
-6.0769 137.1153 367.7312 -0.843 -0.486 -0.231 57 49 30
-73.6634 178.5204 227.4732 -0.586 0.257 -0.768 55 120 88
-49.8793 151.2532 347.8292 0.960 -0.123 -0.252 68 58 48
42.8866 131.4370 344.9205 -0.869 0.392 -0.302 199 205 219
-73.5580 179.0049 227.7055 -0.311 0.221 -0.924 53 116 85
42.6696 132.5564 343.5498 -0.961 -0.117 -0.252 197 203 217
41.2722 132.7448 348.8165 -0.952 0.092 -0.293 104 123 155
21.8838 141.4998 327.9980 0.221 -0.782 -0.582 119 95 67
28.7320 136.8690 345.7701 -0.001 -0.793 -0.609 137 115 92
28.0093 138.8976 344.5241 0.636 0.592 -0.496 126 109 83
42.1147 135.3782 346.9738 -0.902 0.300 -0.310 194 205 233
-69.6378 188.5695 184.8612 -0.567 0.723 -0.395 61 117 90
27.5135 140.7200 344.1531 0.607 0.693 -0.389 110 99 71
43.4432 137.1037 344.8282 -0.934 0.215 -0.286 195 198 213
37.6763 136.6340 360.4836 0.691 0.598 -0.406 235 245 246
-70.0311 189.0614 187.8911 -0.135 0.890 -0.435 80 117 99
-22.8237 158.8124 315.6544 0.511 0.792 -0.335 58 45 39
37.3521 138.3801 360.8257 0.735 0.420 -0.532 217 229 229
41.0879 138.6826 353.7462 -0.939 0.123 -0.322 65 84 116
43.4273 139.0699 348.0683 -0.979 -0.116 -0.169 192 199 217
43.3938 139.5135 345.3236 -0.979 -0.116 -0.169 196 202 218
-70.8402 189.7841 190.2247 -0.585 0.606 -0.539 220 231 225
42.2965 139.5895 351.6708 -0.781 0.476 -0.404 158 170 196
43.6775 139.8218 348.2430 -0.979 -0.108 -0.174 193 202 217
35.0381 141.7014 353.8212 -0.740 -0.574 -0.350 185 197 193
41.8660 140.4362 352.2657 -0.768 0.612 -0.190 128 144 170
37.4633 141.2314 358.9963 0.058 -0.059 -0.997 110 134 138
42.6215 141.2433 351.4185 -0.730 0.657 -0.188 178 189 207
24.0462 150.0330 325.6236 0.106 0.757 -0.644 112 129 110
42.5412 139.6934 367.5758 -0.495 -0.719 -0.488 61 97 121
43.3984 142.0286 350.6593 -0.738 0.649 -0.188 195 201 217
43.9379 142.5835 351.8023 -0.737 0.650 -0.184 195 201 215
42.7900 145.0168 367.0089 -0.671 -0.244 -0.700 54 90 114
43.0484 145.2350 364.9634 0.180 -0.091 -0.979 68 100 125
42.5853 145.7438 368.5341 -0.729 -0.255 -0.635 54 90 112
35.3400 150.1390 367.5099 0.054 -0.743 -0.667 27 81 83
39.7214 148.7029 371.2408 -0.852 0.230 -0.470 40 86 102
40.7340 148.4049 371.8321 -0.842 0.272 -0.465 44 87 104
41.9472 148.3573 370.0610 -0.853 0.217 -0.475 52 87 106
45.6067 148.5139 362.3156 0.018 -0.909 -0.416 192 202 211
42.0859 150.5930 366.0417 -0.913 -0.266 -0.309 130 156 171
42.5149 150.6715 364.5945 -0.918 -0.262 -0.299 156 178 192
43.5591 150.3524 365.3256 -0.790 0.306 -0.532 177 195 207
45.6013 150.0918 363.7245 -0.946 -0.119 -0.303 192 203 209
37.5412 152.3585 367.1041 -0.141 -0.791 -0.596 43 92 106
41.5127 151.5784 366.2498 -0.801 -0.530 -0.278 127 153 170
42.4700 151.6649 363.7070 -0.776 -0.502 -0.381 176 195 209
33.2285 155.0784 359.4804 0.847 -0.452 -0.278 34 89 94
36.0190 153.6017 366.9339 0.314 -0.888 -0.336 35 88 96
36.6504 153.5529 366.1413 -0.076 -0.829 -0.554 36 88 99
43.2432 152.4779 362.7757 -0.788 -0.509 -0.347 189 203 214
44.6368 152.2750 361.8527 -0.667 -0.702 -0.249 193 202 207
31.2815 156.5969 357.5407 0.490 -0.636 -0.596 29 82 86
40.8005 153.6204 365.2145 -0.816 -0.511 -0.271 140 167 186
40.3096 154.5554 365.7197 -0.888 -0.350 -0.300 123 155 176
27.7237 157.9414 368.4316 0.149 0.891 -0.429 21 80 62
40.2316 157.4825 363.1999 -0.628 0.609 -0.485 171 194 210
41.7292 157.2113 362.6010 -0.714 0.609 -0.345 181 193 207
40.4030 161.5721 366.1245 -0.465 0.132 -0.875 180 195 202
41.5499 161.2172 367.2228 -0.503 0.182 -0.845 185 196 202
-5.6658 189.0601 360.2533 0.949 -0.231 -0.215 27 96 68
-4.7142 188.8144 360.9896 0.925 -0.299 -0.236 29 95 68
8.3124 194.5822 326.7610 -0.592 0.032 -0.805 177 178 180
-9.7498 200.3548 320.6388 -0.322 -0.191 -0.927 199 197 200
-9.5149 329.7296 343.6533 -0.810 -0.536 -0.238 222 220 221
