ply
format ascii 1.0
element vertex 293
property float x
property float y
property float z
property float nx
property float ny
property float nz
property uchar diffuse_red
property uchar diffuse_green
property uchar diffuse_blue
end_header
61.5890 1.3189 178.4221 0.604 -0.115 -0.789 202 191 169
13.9168 -4.2970 154.6738 -0.654 -0.538 -0.531 199 189 162
60.9181 2.0967 176.8024 0.531 -0.138 -0.836 196 186 161
67.8800 3.5402 175.3073 -0.652 -0.335 -0.681 199 189 164
62.8871 3.7754 162.8207 -0.011 -0.339 -0.941 196 184 160
64.1472 5.1170 160.8398 -0.125 -0.475 -0.871 189 179 154
66.4513 5.4394 163.8013 0.009 0.442 -0.897 190 180 155
9.9826 -2.2458 180.1325 0.295 -0.511 -0.807 208 197 175
9.8099 -1.8386 178.2141 0.489 -0.612 -0.622 205 194 172
10.2642 -1.7724 178.7567 0.639 -0.393 -0.661 204 193 171
9.8786 -1.0403 167.8463 -0.254 0.690 -0.677 199 187 163
10.7073 -0.9183 168.3820 0.848 0.047 -0.527 198 184 158
11.0687 -0.8705 167.8749 0.806 -0.018 -0.591 196 182 156
10.2619 -0.5727 168.4886 0.828 0.111 -0.550 198 184 158
10.6551 -0.5174 168.4239 0.899 0.027 -0.437 196 182 156
8.4925 -0.0250 167.2718 -0.248 0.070 -0.966 195 185 158
8.8799 0.0280 167.1340 -0.298 0.161 -0.941 195 183 157
9.3058 0.0960 167.6520 -0.445 0.485 -0.753 193 181 155
14.2752 1.5172 162.7371 -0.279 0.016 -0.960 178 161 131
74.1039 10.3823 163.0742 -0.365 0.583 -0.726 187 175 149
74.2970 10.4015 162.7031 -0.377 0.572 -0.729 187 177 150
73.3363 10.6205 161.5048 -0.815 -0.110 -0.569 182 173 144
72.7430 10.4676 158.6712 -0.603 0.411 -0.684 184 175 146
73.3050 10.9982 161.5355 -0.812 -0.119 -0.571 181 172 143
72.2340 11.5425 159.4005 -0.771 -0.421 -0.478 176 167 138
6.2590 6.3831 157.1358 -0.453 -0.657 -0.603 175 164 134
0.2039 11.8008 180.9754 0.349 -0.895 -0.279 196 184 172
-87.5162 -0.6067 171.5478 -0.696 -0.517 -0.497 234 228 232
1.2397 12.6330 174.1187 0.073 -0.987 -0.140 182 167 146
-80.2982 0.5973 156.0460 -0.300 -0.879 -0.372 230 224 228
52.7560 21.9638 172.1168 -0.238 0.002 -0.971 149 135 109
53.3172 22.0974 172.6499 -0.076 0.284 -0.956 148 134 108
54.5745 22.1606 171.6520 -0.814 -0.116 -0.569 146 131 108
76.6293 25.0365 170.5621 -0.794 0.388 -0.468 146 132 105
53.1690 22.3197 171.0927 0.053 0.316 -0.947 143 128 105
61.4662 22.9047 166.1895 0.777 -0.293 -0.557 129 115 102
69.6911 24.2043 167.8674 0.277 -0.253 -0.927 135 117 103
76.9528 25.5752 171.3801 -0.801 0.357 -0.481 143 129 103
52.4928 22.5544 170.3474 -0.050 -0.120 -0.991 139 124 103
52.8676 22.5998 170.2996 0.016 0.055 -0.998 138 123 102
53.2418 22.6450 170.2509 -0.312 0.014 -0.950 138 123 104
69.2607 24.4431 166.9578 0.343 -0.012 -0.939 125 109 96
53.8122 22.9364 168.5654 -0.749 -0.449 -0.487 131 118 102
66.6766 25.1887 173.0254 0.813 0.013 -0.582 113 98 91
69.3150 24.7731 166.3080 -0.068 0.860 -0.506 116 99 89
74.4153 26.2153 172.8527 0.168 0.652 -0.740 128 112 99
74.5148 26.1527 172.1916 0.456 0.616 -0.642 126 112 101
62.6147 24.4173 167.6140 0.738 0.477 -0.477 109 95 92
69.7777 25.6941 170.2485 -0.263 0.868 -0.422 106 91 84
69.8224 25.1837 165.8512 -0.547 0.401 -0.735 109 95 86
75.5708 26.1917 167.8233 -0.780 0.035 -0.624 130 119 101
75.9614 26.2480 167.8537 -0.798 -0.055 -0.600 130 119 101
74.9002 26.4347 167.2800 -0.801 0.190 -0.568 125 113 99
75.4707 26.5629 167.7076 -0.750 0.284 -0.597 126 114 100
71.9498 26.2545 165.8083 -0.277 0.881 -0.384 104 91 82
69.9175 26.5609 167.2954 -0.117 0.588 -0.800 92 79 73
72.8252 26.8162 166.2062 -0.350 0.838 -0.418 100 90 80
70.4394 26.9745 166.8637 -0.893 0.189 -0.409 85 74 68
70.8109 27.4347 166.9642 -0.816 0.434 -0.381 85 74 68
75.3601 28.4680 167.1599 -0.550 0.682 -0.481 87 76 70
42.4859 25.9052 174.7376 -0.563 0.754 -0.339 132 117 96
38.1870 25.6285 173.8489 0.403 0.044 -0.914 151 134 104
38.7249 25.7833 174.4437 0.172 -0.361 -0.916 150 133 103
39.2262 25.9094 174.8671 -0.396 -0.750 -0.529 148 131 103
39.6423 25.9715 174.9140 -0.375 -0.789 -0.487 145 128 100
37.4155 25.7443 172.4312 0.373 -0.062 -0.926 151 134 106
50.4044 28.0927 170.9772 -0.177 0.848 -0.499 109 100 93
51.8800 28.6225 173.2463 -0.907 -0.119 -0.404 108 99 92
52.5368 28.4574 171.5277 -0.950 0.049 -0.310 107 98 93
52.7740 28.4159 171.0305 -0.890 -0.195 -0.411 107 98 93
51.8970 28.9344 169.7991 -0.905 -0.332 -0.266 98 89 84
52.4810 28.9183 169.1830 -0.911 -0.249 -0.328 97 87 85
52.8036 28.9301 168.9786 -0.883 -0.078 -0.463 97 87 85
53.0854 28.9176 168.6496 -0.747 -0.002 -0.665 96 86 85
49.9033 29.3130 168.6910 -0.251 0.750 -0.612 89 82 74
50.4255 29.4520 169.1361 -0.913 -0.133 -0.386 85 78 70
50.6471 29.3958 168.5910 -0.889 -0.396 -0.232 83 76 70
50.8073 29.3016 167.8548 -0.894 -0.379 -0.240 82 75 69
36.5148 28.7474 173.7086 0.946 0.112 -0.306 126 112 85
52.9637 30.7607 170.1231 -0.362 0.882 -0.302 74 67 61
47.0931 25.4877 142.3112 -0.536 -0.511 -0.672 69 60 55
53.2518 31.3837 171.1953 -0.373 0.877 -0.302 70 63 57
53.6006 31.4073 171.0588 -0.366 0.879 -0.304 70 60 58
30.1469 29.4253 175.2396 0.481 -0.009 -0.877 154 134 109
53.3136 32.0722 172.8077 -0.259 0.924 -0.281 76 67 62
53.5339 32.0085 172.2510 -0.281 0.894 -0.349 75 66 61
53.8694 32.0216 172.0645 -0.285 0.893 -0.349 72 63 58
25.6714 28.9411 170.8849 0.569 -0.433 -0.699 153 133 108
30.5142 30.0010 173.3529 -0.284 -0.025 -0.958 147 127 103
30.8605 29.9917 173.0335 -0.415 -0.181 -0.892 142 124 102
28.0677 29.7229 171.1818 0.281 0.574 -0.769 145 124 103
30.0430 30.3486 173.2873 -0.077 0.654 -0.752 140 119 100
30.3190 30.2606 172.5730 -0.491 -0.223 -0.842 139 118 97
24.5132 31.7584 173.4254 0.090 0.939 -0.333 89 63 50
15.0471 30.9220 173.2890 0.404 0.700 -0.589 156 136 111
31.6240 33.3757 174.8479 -0.570 0.540 -0.619 68 44 40
35.0846 33.6360 173.8389 0.244 -0.765 -0.596 73 48 41
35.5040 33.7039 173.9093 0.229 -0.741 -0.631 72 47 40
35.9639 33.8132 174.1708 -0.056 0.543 -0.838 70 45 38
36.3607 33.8575 174.1317 -0.204 0.668 -0.716 73 48 41
15.0314 31.4294 173.7368 0.428 0.710 -0.559 153 133 109
18.7574 31.9705 174.0315 0.212 0.761 -0.613 117 96 77
25.8688 33.0880 175.0368 -0.394 -0.434 -0.810 58 28 26
34.9597 33.9759 173.4961 0.242 -0.761 -0.601 66 41 36
35.3826 34.0484 173.5874 0.249 -0.752 -0.610 62 37 32
35.9378 34.2578 174.3043 0.114 -0.491 -0.864 60 35 30
36.3611 34.3289 174.3878 0.102 -0.497 -0.862 58 33 28
12.9629 31.6952 174.3023 0.693 0.674 -0.256 158 138 111
13.2955 32.1084 174.0135 0.679 0.669 -0.302 157 137 113
14.1977 32.4048 174.9273 0.633 0.679 -0.372 146 125 104
44.7032 37.9082 172.1887 -0.238 0.898 -0.371 83 55 43
55.0338 39.2571 172.2697 -0.511 -0.835 -0.202 100 83 75
10.4093 34.0736 172.9689 0.055 0.654 -0.755 144 123 102
9.5605 34.4966 173.4738 0.492 0.459 -0.740 152 131 110
9.9676 34.5312 173.3908 0.032 0.648 -0.761 144 123 104
14.1161 35.1527 173.8032 0.834 0.213 -0.509 56 36 29
14.5310 35.2141 173.8406 0.853 0.192 -0.485 55 35 28
15.4335 35.5134 174.6987 -0.433 0.693 -0.576 55 34 29
46.8420 38.6056 170.2635 -0.615 0.558 -0.557 100 72 61
47.1815 38.6090 170.0751 -0.619 0.553 -0.557 105 77 66
14.5369 35.7952 174.5557 0.850 0.267 -0.454 51 30 25
14.9721 35.9035 174.7985 0.826 0.240 -0.511 52 31 26
47.2648 39.1342 170.5535 -0.658 0.467 -0.591 94 65 57
47.5912 39.1253 170.3183 -0.630 0.555 -0.544 100 72 61
13.6194 36.0165 174.1497 0.193 0.701 -0.686 52 31 26
54.4669 39.8226 167.5885 -0.276 -0.629 -0.727 93 74 67
8.8776 36.6029 173.7577 0.600 -0.359 -0.715 99 77 64
8.3642 36.7799 172.9498 0.812 0.513 -0.276 88 66 53
8.8358 37.0891 174.0404 0.502 -0.506 -0.701 78 56 45
9.2648 37.2034 174.3013 0.413 -0.549 -0.726 68 45 37
51.3047 41.6954 170.4799 0.413 0.472 -0.779 106 79 68
51.8343 41.5761 169.6619 -0.845 -0.395 -0.359 108 81 72
5.4283 36.8707 173.1226 0.866 -0.276 -0.416 149 131 109
8.7810 37.5209 174.0884 0.534 -0.422 -0.732 66 43 35
9.2164 37.6621 174.4601 0.486 -0.414 -0.769 66 42 38
7.8300 37.5239 172.7864 0.826 0.504 -0.251 83 60 52
9.6194 38.3220 175.2312 0.764 -0.304 -0.569 54 30 28
71.4708 46.4281 176.2340 -0.295 0.241 -0.925 78 54 50
8.2270 38.1944 173.6140 0.739 -0.214 -0.639 65 42 36
51.4317 43.3127 170.2851 -0.802 -0.044 -0.595 84 56 45
2.2414 38.5575 172.9562 0.832 0.441 -0.338 161 140 123
2.1775 38.8893 172.6035 0.877 0.391 -0.280 154 131 117
8.4480 40.1039 174.3204 0.725 0.573 -0.383 57 29 26
8.9036 40.3423 175.0561 0.676 0.599 -0.430 54 29 25
9.3132 40.3637 174.9324 0.609 0.689 -0.392 60 35 31
2.1228 39.3550 172.7926 0.885 0.376 -0.275 152 128 116
2.5516 39.6104 173.6037 0.790 0.432 -0.435 145 121 109
9.2613 40.8131 175.0359 0.584 0.706 -0.400 65 40 36
1.6396 39.5074 171.9433 0.889 0.373 -0.266 152 129 115
2.0648 39.7712 172.7822 0.889 0.373 -0.266 151 124 113
2.4969 40.0776 173.7872 0.663 -0.037 -0.748 144 117 108
2.4304 40.3831 173.3336 0.696 -0.075 -0.714 134 107 98
9.2047 41.9312 176.0791 0.696 0.511 -0.504 74 46 43
1.9466 40.5692 172.6267 0.280 -0.942 -0.184 133 104 96
3.6100 40.8958 173.0857 0.102 0.896 -0.433 74 45 41
4.0259 40.9680 173.1637 0.126 0.905 -0.405 71 42 38
4.4442 41.0594 173.3153 0.123 0.907 -0.404 67 37 35
8.6945 42.1447 175.4703 0.734 0.590 -0.338 71 43 39
4.4116 41.7028 174.1689 0.123 0.907 -0.404 66 36 34
8.6766 42.7682 176.2212 0.671 0.651 -0.355 73 45 41
9.1326 42.9934 176.8719 0.664 0.553 -0.504 69 41 37
9.5769 43.1521 177.2708 0.660 0.559 -0.502 67 39 36
3.0543 41.3712 171.9008 0.325 -0.900 -0.291 72 41 39
4.3577 42.1623 174.3098 0.411 0.848 -0.333 66 35 33
5.2215 42.5076 175.2195 0.675 0.693 -0.252 72 41 39
8.1814 43.0524 175.8852 0.767 0.616 -0.182 75 45 43
9.0840 43.4687 177.0487 0.699 0.506 -0.506 66 41 37
-1.1182 40.8006 170.1062 -0.079 0.845 -0.530 168 149 134
2.5781 41.6352 171.5188 0.888 -0.435 -0.152 70 39 37
2.9975 41.7964 171.9320 0.936 -0.286 -0.205 67 36 34
3.8507 42.2096 173.0965 0.883 -0.045 -0.467 64 33 31
4.2845 42.4466 173.7911 0.854 -0.285 -0.435 66 35 33
5.5363 42.6488 173.9637 0.573 -0.556 -0.602 78 47 45
9.0285 43.9122 177.1038 0.306 0.052 -0.950 65 40 36
3.3660 42.4320 172.5541 0.898 -0.211 -0.387 66 35 33
3.7802 42.4994 172.6128 -0.181 0.317 -0.931 66 35 33
7.6312 43.7697 175.5830 0.542 0.767 -0.343 74 44 42
0.4044 42.0340 170.8605 0.404 0.780 -0.477 127 100 91
0.8207 42.2874 171.6121 0.325 0.785 -0.528 106 77 71
1.2352 42.4149 171.8944 0.325 0.785 -0.528 90 61 57
3.3037 42.7963 172.3534 0.197 0.275 -0.941 68 37 35
6.7028 43.8818 174.8195 0.806 -0.224 -0.548 78 48 46
7.1345 44.0226 175.1437 0.732 -0.332 -0.595 76 46 44
7.5511 44.0684 175.1201 0.414 -0.132 -0.901 72 42 40
7.9823 44.1963 175.3965 0.658 0.680 -0.324 68 38 36
3.2270 42.9893 171.5294 -0.056 -0.426 -0.903 70 39 37
3.6375 43.0424 171.5364 -0.318 -0.333 -0.888 73 42 40
4.0466 43.0824 171.4954 -0.424 -0.322 -0.847 77 46 44
4.4782 43.3298 172.2110 -0.091 -0.435 -0.896 79 48 46
4.9035 43.4967 172.6321 -0.060 -0.554 -0.830 82 51 49
6.5880 43.9353 173.4766 0.687 -0.393 -0.611 75 45 43
7.0511 44.2906 174.5768 0.685 -0.397 -0.611 72 42 40
7.4885 44.4663 175.0244 0.400 -0.151 -0.904 68 38 36
0.6582 43.9022 172.9294 0.957 -0.086 -0.278 72 44 41
0.5901 43.9591 171.6263 0.873 -0.382 -0.303 70 42 39
-2.3527 44.0356 171.6882 -0.622 0.295 -0.725 158 141 131
-0.2940 43.9535 170.4840 0.801 -0.546 -0.245 74 49 45
0.5321 44.3680 171.5969 0.797 -0.569 -0.202 66 41 37
-2.3975 44.0729 170.3370 0.259 0.301 -0.918 150 133 123
-2.4538 44.4497 170.2039 0.614 -0.044 -0.788 140 123 115
-2.0979 44.7641 169.6788 0.372 -0.812 -0.449 112 93 87
1.1664 45.3142 170.1883 -0.413 0.380 -0.828 61 33 32
-2.5631 45.1212 169.6592 0.764 -0.278 -0.583 119 102 95
1.1084 45.7070 170.1158 -0.433 0.352 -0.830 64 38 37
1.5246 45.9416 170.7471 0.399 0.522 -0.754 71 45 44
-4.1588 44.0143 165.1146 0.341 0.248 -0.907 171 159 147
-2.2142 45.6380 169.8420 0.782 0.039 -0.622 91 72 68
0.6421 46.0305 169.9800 -0.089 -0.364 -0.927 63 37 38
1.0530 46.1717 170.2892 -0.078 -0.273 -0.959 77 51 50
1.8871 46.6128 171.4447 0.610 0.547 -0.574 82 54 53
2.3079 46.8300 172.0093 0.603 0.562 -0.566 81 53 52
-4.9719 43.8859 163.6325 0.715 0.649 -0.260 183 171 159
-2.6849 46.1225 170.2542 0.181 0.539 -0.823 98 81 74
-2.2773 46.2320 170.4552 0.084 0.465 -0.882 80 61 57
0.9934 46.5148 170.0492 -0.076 -0.402 -0.913 87 61 60
2.6634 47.3156 172.0650 0.955 -0.071 -0.287 70 44 43
3.9619 48.1624 174.3917 0.295 0.900 -0.321 58 30 29
-5.0488 44.5213 164.4353 0.540 0.786 -0.302 180 168 156
-3.9195 45.5779 167.5177 0.276 0.589 -0.759 143 129 120
-2.3369 46.7063 170.6542 0.206 0.823 -0.530 75 56 52
1.7640 47.2808 170.8905 0.884 -0.451 -0.122 82 56 55
4.3582 49.0256 175.6794 0.250 0.897 -0.364 56 28 27
-5.1220 45.1133 165.0784 0.741 0.612 -0.275 176 163 154
-4.7400 45.3560 165.7305 0.702 0.652 -0.285 165 152 143
-4.3619 45.6931 166.6989 0.466 0.684 -0.561 150 137 128
1.7019 47.5968 170.5600 0.767 -0.634 -0.097 82 58 56
-4.4238 46.1688 166.9292 0.828 0.518 -0.216 147 134 125
2.0564 48.1162 170.7379 0.765 -0.636 -0.098 68 44 42
-5.2321 45.8925 164.9911 0.953 0.264 -0.145 172 159 150
-4.8646 46.3071 166.2022 0.952 0.270 -0.144 159 144 137
1.6210 49.1878 173.0396 0.986 0.006 -0.165 80 56 54
2.8216 48.6931 170.9368 0.827 -0.554 -0.096 46 22 20
0.7336 49.5451 173.1613 0.273 0.928 -0.254 83 62 59
2.0208 50.5116 175.7909 0.295 0.910 -0.291 64 40 38
-4.2378 48.1162 169.1286 0.918 0.368 -0.148 85 68 61
0.6747 49.9442 173.0883 0.149 0.949 -0.279 79 58 55
1.5403 50.8925 175.8050 0.216 0.923 -0.319 67 46 43
-4.6921 48.3377 168.6717 0.909 0.392 -0.140 87 72 65
-4.2974 48.5602 169.2292 0.917 0.370 -0.148 73 56 49
1.4668 50.9586 174.6525 0.058 0.954 -0.294 60 39 36
-3.9533 49.1226 169.5481 0.719 0.647 -0.254 64 45 41
-3.1747 50.0572 172.2130 0.499 0.819 -0.283 61 40 35
-3.2368 50.5554 172.4597 0.497 0.807 -0.319 61 40 35
0.9441 52.2280 176.1250 0.797 -0.389 -0.462 55 34 31
-0.8065 51.7676 173.9873 0.609 -0.773 -0.176 85 64 61
0.8711 52.1735 174.6188 0.720 -0.665 -0.195 52 32 31
-7.2669 48.9013 166.1929 0.414 0.777 -0.475 192 178 169
-6.8550 48.8603 165.9111 0.256 0.418 -0.872 181 166 159
-6.4577 48.9401 166.0089 0.301 -0.692 -0.656 161 146 139
-5.6678 49.1611 166.3973 0.537 -0.609 -0.584 102 84 82
-0.4480 52.0459 173.3777 0.608 -0.780 -0.149 69 45 43
-0.0324 52.0142 173.1232 0.585 -0.799 -0.136 56 35 32
0.7988 52.1000 173.0766 0.751 -0.642 -0.154 47 27 26
-7.3150 49.2369 165.9720 0.365 0.823 -0.436 185 170 163
-6.9096 49.2477 165.8541 0.214 0.434 -0.875 170 153 146
-6.5039 49.2494 165.7082 -0.250 -0.243 -0.937 148 131 124
-7.3492 49.4610 165.4086 0.517 0.542 -0.663 176 161 154
-6.9594 49.5935 165.6690 0.523 0.533 -0.666 154 137 130
-6.5566 49.6183 165.5960 0.412 0.440 -0.798 131 113 109
-4.9650 49.9024 165.8759 0.858 -0.499 -0.119 60 36 36
-3.3881 50.5521 167.2769 0.954 -0.291 -0.070 80 59 56
-0.1512 52.6531 172.4960 0.703 -0.697 -0.144 53 32 31
-1.0387 52.9464 172.4130 0.868 -0.449 -0.214 65 47 45
56.3741 58.2168 167.3720 -0.894 -0.293 -0.338 61 40 37
51.2336 51.3231 148.3657 -0.348 0.023 -0.937 56 33 27
-3.1019 51.4922 167.5013 0.943 -0.323 -0.077 93 74 70
-0.2721 52.9305 170.8004 0.825 -0.499 -0.266 51 29 31
-7.1419 50.9148 165.9884 0.904 -0.409 -0.124 117 99 95
-6.7483 51.0315 166.1951 0.889 -0.434 -0.149 89 70 66
-3.5739 52.0778 168.1770 0.801 -0.592 -0.084 85 64 61
-1.1541 53.6411 171.9735 0.129 0.775 -0.619 59 41 41
0.0140 53.1014 168.6932 0.738 -0.624 -0.256 47 27 28
0.8185 52.9764 168.0360 0.602 -0.750 -0.274 54 33 32
-6.8830 52.0340 166.7589 0.888 -0.435 -0.146 75 55 54
-4.4295 51.7586 165.0822 0.966 -0.247 -0.071 69 40 42
-2.9312 53.3168 167.9084 0.960 -0.191 -0.206 69 54 51
59.4630 52.4442 143.5097 0.460 -0.273 -0.845 65 51 50
-8.9799 52.3754 166.0700 -0.026 0.901 -0.433 182 171 167
-7.0661 53.4727 168.5865 -0.262 0.067 -0.963 67 47 48
-2.9754 53.4019 166.9608 0.951 -0.264 -0.163 65 50 47
59.1880 52.5657 142.9540 0.597 -0.404 -0.693 61 47 46
61.7477 53.6219 145.1271 0.907 -0.271 -0.322 49 34 37
-9.8806 52.9276 166.7783 0.539 0.750 -0.384 199 190 183
-2.2457 54.5957 168.9510 0.938 -0.291 -0.187 50 30 29
60.7775 53.3704 143.7305 0.883 -0.331 -0.332 50 35 38
-10.4099 53.6888 167.9461 0.950 -0.299 -0.086 205 194 190
-2.7850 54.6645 165.7761 0.991 -0.013 -0.133 42 26 26
-9.0542 55.8222 168.7702 0.930 -0.349 -0.119 89 73 74
-8.1899 55.5469 167.7202 -0.129 0.772 -0.622 68 48 50
-2.9212 56.1195 167.5723 0.979 -0.189 -0.082 38 22 22
55.9063 61.9685 164.4107 -0.960 -0.132 -0.247 38 20 18
63.3204 58.5938 152.5878 -0.749 -0.120 -0.651 53 37 37
-8.7936 56.9402 169.4422 0.897 -0.426 -0.118 61 42 44
