ply
format ascii 1.0
element vertex 101
property float x
property float y
property float z
property float nx
property float ny
property float nz
property uchar diffuse_red
property uchar diffuse_green
property uchar diffuse_blue
end_header
-101.1271 83.8447 374.3026 0.372 -0.916 -0.151 220 208 192
-99.4179 90.7929 358.8511 0.063 -0.980 -0.186 228 221 205
-97.6708 93.1004 342.3647 0.102 -0.987 -0.124 183 176 160
25.9846 71.7417 331.2060 0.787 -0.589 -0.184 34 199 156
24.0308 73.1986 325.0267 0.827 -0.533 -0.181 32 197 154
15.3363 76.5763 303.2273 0.858 -0.474 -0.197 42 194 145
25.0007 73.7986 325.2219 0.684 -0.698 -0.209 18 178 140
-58.8801 87.9271 359.2542 -0.002 0.821 -0.571 124 121 104
20.1088 76.0247 312.6755 0.340 -0.909 -0.240 38 205 159
22.2174 75.4659 316.6970 0.603 -0.763 -0.231 17 176 138
24.6049 74.8232 321.4694 0.604 -0.763 -0.228 13 151 125
22.6030 76.2209 315.2720 0.661 -0.708 -0.250 4 143 114
19.3386 77.8771 307.5098 0.220 -0.921 -0.323 17 176 136
21.4362 77.3412 311.4961 0.624 -0.732 -0.274 0 136 108
26.0402 76.0688 322.5994 0.872 -0.450 -0.194 2 121 102
35.3912 74.3475 344.3227 0.915 -0.363 -0.175 33 119 118
59.6758 71.3568 309.7559 0.508 0.772 -0.383 188 184 183
19.9802 79.2792 306.4953 0.570 -0.766 -0.298 0 135 105
23.2873 78.4244 313.9020 0.871 -0.452 -0.192 1 117 98
33.9196 75.5234 341.9708 0.839 -0.504 -0.205 21 123 112
34.3990 75.4700 341.0844 0.916 -0.361 -0.176 32 121 117
42.3996 73.3215 361.2456 0.894 -0.405 -0.189 37 108 110
-80.9712 96.2507 358.1354 -0.692 0.318 -0.648 112 105 79
-22.0453 87.6207 302.7525 -0.910 0.350 -0.223 178 172 148
32.7828 76.6724 338.3093 0.832 -0.518 -0.200 20 122 109
30.7672 77.2950 330.4327 0.923 -0.347 -0.168 32 121 115
51.3620 71.8576 383.3266 0.881 -0.424 -0.211 44 102 106
-22.1631 88.5113 298.2863 -0.906 0.352 -0.233 188 182 158
-95.9309 101.3752 332.9415 -0.243 -0.954 -0.173 124 150 137
-80.4287 97.3826 376.0301 -0.315 0.753 -0.578 98 102 79
-21.5812 89.0680 300.3747 -0.902 0.377 -0.211 192 186 162
12.8236 83.2214 290.6016 0.829 -0.520 -0.209 55 242 187
40.7965 77.6050 376.3878 -0.675 -0.726 -0.134 32 194 147
35.7128 78.9246 358.9128 0.612 -0.756 -0.233 47 229 178
38.0476 78.4052 363.2802 0.774 -0.598 -0.209 58 249 197
-42.1839 93.5273 365.8195 -0.638 -0.753 -0.158 169 164 142
-41.9744 93.6033 360.4783 -0.679 -0.714 -0.170 179 175 150
-22.7684 90.3105 354.3478 -0.270 -0.946 -0.179 158 154 125
-21.7066 90.0941 355.6274 -0.151 -0.973 -0.173 150 146 117
53.1861 76.2075 381.0364 -0.917 -0.361 -0.167 149 176 183
53.0059 76.3009 378.1523 -0.920 -0.356 -0.165 194 213 220
52.0441 76.5773 373.2043 -0.909 -0.384 -0.162 195 208 216
53.6581 76.2473 375.1980 -0.168 -0.931 -0.324 192 201 208
-42.5850 94.4389 368.3682 -0.714 -0.678 -0.174 147 142 120
-24.9851 91.5515 355.0353 -0.795 -0.585 -0.159 177 176 146
-23.8646 91.3207 356.6888 -0.805 -0.567 -0.176 178 177 147
52.0619 77.4390 375.1310 -0.847 -0.504 -0.170 190 209 216
-97.1764 105.8287 321.7395 -0.933 0.284 -0.221 210 220 221
-24.1887 92.2881 353.9339 -0.835 -0.470 -0.288 176 175 145
49.6795 78.7276 377.7187 -0.333 -0.896 -0.294 51 117 116
-96.5089 106.6933 307.2285 -0.482 0.817 -0.317 210 220 221
-67.5948 100.9692 348.1470 -0.544 -0.824 -0.159 68 55 39
-65.5215 101.5489 339.0756 -0.741 -0.644 -0.189 195 187 166
33.3220 83.7654 351.9405 -0.588 -0.799 -0.128 48 219 177
40.3375 82.4462 357.8599 0.645 -0.723 -0.247 5 117 101
38.7960 83.5872 357.7441 0.973 0.121 -0.197 14 182 149
-75.7930 104.8794 362.6009 -0.980 0.147 -0.133 61 63 50
-44.3666 99.2792 360.9486 0.920 -0.237 -0.313 134 129 109
45.7497 83.1174 372.1358 -0.076 0.906 -0.416 4 115 99
-46.0436 100.4610 359.7170 -0.389 -0.721 -0.573 139 134 115
14.2531 89.6360 373.8067 0.308 0.919 -0.248 68 56 42
28.3358 87.2535 340.5956 -0.667 -0.739 -0.097 8 129 94
43.2206 84.4899 366.9578 0.227 0.935 -0.271 0 138 115
-79.5842 107.4379 287.6136 -0.326 -0.916 -0.234 44 90 61
32.5809 87.3146 343.2370 0.977 -0.133 -0.166 60 254 219
45.1586 85.0236 371.9464 0.253 0.928 -0.274 1 140 119
41.7039 85.6664 355.2126 -0.460 -0.875 -0.151 40 122 120
47.2017 85.5635 377.2180 0.917 0.342 -0.203 0 140 121
-91.5440 111.2450 367.4026 0.164 -0.923 -0.349 39 125 86
47.8072 86.3725 378.4327 0.928 0.308 -0.208 5 143 127
22.8974 92.9684 321.8727 -0.503 -0.857 -0.117 40 149 120
30.2528 91.8355 338.8406 0.974 -0.009 -0.226 123 245 224
32.4731 91.4827 342.9589 0.973 -0.008 -0.229 135 255 243
33.4458 91.3141 343.4562 0.980 -0.085 -0.179 133 255 248
51.5509 88.4959 382.4622 0.972 -0.125 -0.199 28 118 116
21.2623 93.9704 316.6446 -0.497 -0.859 -0.120 55 158 129
26.3547 92.9502 308.4405 -0.011 -0.985 -0.173 55 112 119
44.0249 91.4289 365.4293 -0.657 -0.626 -0.421 21 136 129
24.5225 93.9393 303.0654 0.030 -0.982 -0.187 58 113 120
25.9463 93.7150 305.0121 0.390 -0.898 -0.204 110 150 158
-94.3437 116.7016 343.8977 0.961 0.210 -0.178 106 135 130
-38.6032 107.0217 360.4956 -0.180 -0.976 -0.119 174 173 145
-11.1298 101.0730 303.9676 -0.671 -0.737 -0.085 62 46 31
24.1394 94.6802 299.7505 0.370 -0.900 -0.229 113 151 160
41.5934 93.5247 360.0526 -0.631 -0.692 -0.351 92 191 186
22.5172 95.5973 295.0005 0.501 -0.834 -0.232 120 157 166
-88.0553 116.4652 309.7636 0.433 0.808 -0.399 19 116 73
35.4145 95.1981 346.8044 0.706 -0.652 -0.277 195 255 255
-15.2733 104.8557 336.3237 -0.405 -0.911 -0.077 142 137 117
-96.7329 120.2538 335.4396 0.252 0.931 -0.264 222 222 222
-18.6179 105.7103 316.2813 -0.343 -0.936 -0.083 156 154 131
-96.6992 121.1651 338.6237 0.212 0.937 -0.276 221 221 219
-96.4615 121.8567 335.7788 -0.150 0.968 -0.199 221 221 219
8.7848 103.3923 285.5742 0.235 -0.962 -0.138 119 87 62
20.3569 102.2784 309.4108 0.611 -0.775 -0.162 183 184 170
-31.2439 117.7358 355.3083 -0.276 -0.957 -0.091 114 109 90
-21.9372 116.8610 370.4318 -0.633 -0.768 -0.095 178 173 154
-5.6480 110.2588 213.1851 0.637 -0.750 -0.178 199 206 214
-51.3680 136.4014 324.4112 -0.558 0.078 -0.826 61 48 39
28.7816 126.9903 348.5761 0.943 -0.313 -0.117 106 91 62
38.4085 155.2613 366.9916 -0.680 -0.456 -0.574 126 152 175
