ply
format ascii 1.0
element vertex 47
property float x
property float y
property float z
property float nx
property float ny
property float nz
property uchar diffuse_red
property uchar diffuse_green
property uchar diffuse_blue
end_header
118.8592 52.3224 402.3591 -0.000 -0.973 -0.229 196 190 190
107.2972 63.2590 378.8492 -0.259 0.843 -0.472 205 204 202
-95.7933 98.2433 376.7304 0.233 -0.952 -0.198 69 114 93
37.1383 76.8766 355.6856 0.244 -0.959 -0.142 60 251 210
41.7765 77.3985 365.7303 -0.083 -0.989 -0.119 43 222 183
29.4329 78.9948 335.7371 0.393 -0.905 -0.160 61 252 211
40.3648 78.2249 359.1070 -0.071 -0.990 -0.119 10 169 139
-66.2704 98.6275 391.8419 -0.078 -0.991 -0.106 66 57 42
-63.8960 98.5962 399.4763 -0.217 -0.970 -0.114 60 48 34
-46.5567 91.2784 308.2697 0.044 -0.795 -0.605 188 184 157
-95.3362 103.5013 355.2930 -0.577 -0.795 -0.186 80 121 103
-94.1438 104.7221 349.7278 -0.299 -0.942 -0.151 51 103 81
-66.3913 101.0037 351.3719 -0.103 -0.990 -0.092 64 48 33
26.5314 84.7111 340.9254 0.730 0.058 -0.681 13 86 57
-94.8359 108.9184 372.6545 -0.869 -0.449 -0.208 76 114 101
13.6337 85.0292 287.1980 0.215 -0.968 -0.129 101 249 233
-79.4573 105.5714 348.1075 -0.370 -0.921 -0.124 36 108 68
-78.6371 105.4144 347.8330 -0.366 -0.923 -0.123 40 106 70
-96.0567 106.5700 310.4168 0.021 -0.972 -0.236 230 238 240
-94.3842 109.7152 359.0461 -0.940 -0.266 -0.213 73 111 100
-77.2077 105.6425 309.9958 -0.572 -0.807 -0.145 32 67 43
-78.6395 106.4766 307.8995 -0.657 -0.740 -0.147 31 95 60
-95.4985 112.3569 299.8106 -0.485 -0.860 -0.157 227 231 230
-45.9507 111.2659 342.1502 -0.601 -0.779 -0.179 129 124 102
-49.9374 111.4084 314.4134 -0.990 -0.003 -0.143 148 143 123
48.6028 100.4975 358.9357 0.582 0.800 -0.146 169 177 196
-50.6833 112.1934 300.3098 -0.985 -0.067 -0.156 128 122 106
43.2345 139.8147 382.8307 0.570 -0.786 -0.241 27 76 80
35.7410 135.1951 354.3205 -0.035 -0.890 -0.454 48 94 110
-48.8007 138.5124 290.1165 0.931 -0.340 -0.132 45 85 58
32.1382 155.3964 359.1472 -0.144 -0.020 -0.989 158 178 189
32.9597 155.2329 359.0614 -0.144 -0.020 -0.989 152 170 184
33.7831 155.0709 358.9825 -0.115 -0.043 -0.992 152 168 184
31.4499 156.4103 359.1821 -0.583 0.131 -0.802 186 201 208
32.2925 156.2587 359.1567 -0.574 0.113 -0.811 180 194 203
33.0991 156.0862 359.0279 -0.144 -0.020 -0.989 173 185 197
33.9428 155.9357 359.0072 -0.115 -0.059 -0.992 169 181 193
32.3214 157.0464 358.8018 -0.646 0.092 -0.758 193 202 211
33.0611 156.8346 358.4821 -0.569 0.133 -0.812 187 196 205
35.1810 156.7867 359.6803 0.666 -0.052 -0.745 184 191 201
31.6334 158.0595 358.8358 -0.595 0.123 -0.794 200 209 214
32.4658 157.9022 358.7827 -0.646 0.092 -0.758 195 202 210
35.3509 157.6592 359.7328 0.666 -0.052 -0.745 187 192 198
14.0952 169.5260 332.0591 -0.369 0.911 -0.185 192 191 197
9.3061 155.5419 284.9496 -0.087 0.962 -0.260 198 196 201
13.5952 169.0182 327.5908 -0.444 0.880 -0.168 198 196 201
11.1216 156.8421 287.8214 -0.402 0.893 -0.204 204 199 203
