ply
format ascii 1.0
element vertex 105
property float x
property float y
property float z
property float nx
property float ny
property float nz
property uchar diffuse_red
property uchar diffuse_green
property uchar diffuse_blue
end_header
8.0793 79.2647 282.2404 0.277 0.944 -0.178 17 132 103
13.7050 80.1759 282.0423 0.833 0.544 -0.097 190 194 193
-100.7166 87.8673 362.0640 0.333 -0.925 -0.181 215 204 186
-100.1146 90.5774 353.5356 0.323 -0.928 -0.186 212 201 183
21.1134 74.5213 317.8914 0.469 0.819 -0.332 83 253 208
16.5159 80.1053 297.5703 0.721 0.684 -0.107 16 105 99
-98.4741 90.2051 361.2040 0.712 -0.565 -0.417 188 175 156
21.3883 74.6397 320.4945 0.488 0.811 -0.322 64 230 180
19.3109 79.4121 301.2462 0.555 0.819 -0.144 54 103 118
-100.0185 91.2514 361.8309 0.633 -0.612 -0.473 212 201 183
15.0164 79.2167 309.3307 0.493 0.853 -0.169 26 132 94
29.4593 72.2255 338.2057 -0.347 0.895 -0.280 102 243 211
-82.2726 94.7224 348.6253 -0.724 0.623 -0.296 135 112 81
-13.1226 85.2692 325.7698 -0.098 0.986 -0.132 53 46 30
-60.8311 99.3641 312.7872 -0.949 -0.222 -0.225 154 144 119
-11.9163 82.8674 347.8557 0.231 0.954 -0.191 177 170 154
-10.3286 82.5758 347.6778 0.213 0.964 -0.162 168 161 145
33.8033 74.2436 347.9596 0.886 -0.250 -0.390 57 202 163
36.0139 73.9125 351.5390 0.937 -0.246 -0.248 57 169 147
-65.5137 107.6661 294.3735 0.943 0.100 -0.317 176 166 141
-66.0175 108.3437 295.0743 0.940 0.104 -0.325 175 168 142
41.2330 74.2084 362.1794 0.912 -0.330 -0.244 38 123 118
34.8308 76.2972 362.7477 0.343 0.926 -0.157 14 120 80
-79.4001 113.9827 291.0281 0.547 0.808 -0.221 73 62 42
-78.7166 113.7779 291.3736 0.529 0.820 -0.218 65 52 36
-29.8522 98.6231 323.0658 -0.593 0.191 -0.782 187 182 153
-29.0563 98.4138 323.3127 -0.494 0.459 -0.738 176 171 142
36.5849 76.4374 369.6024 0.323 0.934 -0.155 9 100 65
-44.7429 101.0734 335.3804 -0.181 0.955 -0.237 173 166 147
38.8355 76.2605 378.0501 0.244 0.956 -0.165 8 79 49
38.9322 78.9782 362.5947 0.352 0.922 -0.159 55 201 152
-92.2106 107.9169 356.9313 0.322 0.848 -0.420 34 105 65
-78.0250 114.9087 300.1465 0.402 0.887 -0.229 63 49 36
-66.9358 117.2826 273.4540 0.889 -0.400 -0.224 187 179 156
-66.1897 116.8113 275.2699 0.978 -0.073 -0.197 186 178 155
-65.4804 116.4760 276.3512 0.983 -0.044 -0.180 189 179 154
-44.8036 100.8562 346.1070 -0.798 0.550 -0.246 153 146 127
-45.5886 103.4722 331.8617 0.106 0.835 -0.540 167 160 141
35.9533 83.4714 350.2460 0.422 0.897 -0.133 18 155 109
51.5527 76.7503 370.5668 0.654 0.747 -0.114 189 196 202
-44.9263 100.9041 350.8929 -0.675 0.703 -0.223 144 138 116
-60.1110 116.4238 281.9704 -0.084 -0.928 -0.364 162 152 127
-43.7790 101.2835 352.2735 -0.738 0.634 -0.229 156 150 128
-21.7284 95.3055 360.7912 0.986 0.005 -0.166 158 157 127
38.1427 83.8185 355.5781 0.455 0.881 -0.131 12 154 104
-43.9827 101.4994 356.3771 -0.800 0.560 -0.215 143 139 114
-44.2741 104.4093 339.1022 0.159 0.845 -0.511 169 163 139
-43.4727 104.2322 339.1728 0.161 0.843 -0.513 177 171 147
-19.0378 104.0758 314.1405 -0.491 0.811 -0.319 168 167 137
-18.9408 104.5589 311.0448 -0.508 0.797 -0.327 171 170 140
-41.6591 104.5781 344.9087 0.811 0.335 -0.479 178 172 148
-40.8530 104.4131 344.9001 0.804 0.312 -0.506 179 173 147
-17.9930 104.5015 314.8716 -0.511 0.792 -0.334 172 168 141
-42.3714 105.6397 349.7585 0.700 0.560 -0.443 151 145 123
-39.4498 105.5665 357.4870 0.595 0.676 -0.434 180 174 150
-24.3282 106.0650 362.6106 -0.458 -0.850 -0.258 173 172 141
-19.3903 109.4394 330.8061 -0.992 -0.078 -0.098 110 108 83
-20.1668 111.0656 325.9069 -0.993 -0.058 -0.104 109 107 82
-20.2109 112.0082 324.8247 -0.994 -0.041 -0.104 107 105 80
-16.5739 108.5868 351.2550 -0.996 0.037 -0.082 107 105 80
-29.1894 110.1081 380.7159 -0.950 0.155 -0.270 158 157 127
-97.5412 125.8568 374.7898 -0.270 -0.927 -0.261 215 209 209
-77.6888 131.1611 297.1148 0.556 0.822 -0.123 29 95 59
-65.0937 125.2713 324.2994 0.329 -0.930 -0.165 58 49 32
-29.0154 111.0107 380.5982 -0.951 0.154 -0.270 151 147 120
38.3531 101.0025 348.4101 -0.579 -0.789 -0.204 114 203 197
-34.2562 113.0832 380.0367 0.899 0.382 -0.213 172 165 146
-30.1704 114.0143 365.0748 -0.801 -0.336 -0.495 139 135 108
42.3297 98.8674 366.6243 -0.294 -0.790 -0.538 190 255 247
43.7126 98.4026 368.1371 -0.510 -0.749 -0.423 187 255 251
42.5679 99.3241 362.3584 -0.505 -0.769 -0.392 178 250 246
-33.9119 113.7951 381.2427 0.903 0.367 -0.222 157 150 131
42.8390 99.8355 365.0507 -0.433 -0.830 -0.351 205 255 253
40.8181 101.2126 356.7848 -0.362 -0.837 -0.409 192 251 247
-46.7970 123.0215 346.4295 -0.674 -0.711 -0.198 155 149 123
-43.7932 129.3415 289.0889 0.230 0.945 -0.231 189 182 164
-17.8908 116.7807 365.2820 0.989 -0.126 -0.073 116 108 95
-22.5386 119.9473 360.9325 0.569 -0.805 -0.166 149 142 124
-19.3047 118.8876 364.8955 0.452 -0.876 -0.167 111 102 87
-54.1643 136.2338 268.9381 -0.875 -0.463 -0.139 141 135 109
-67.7437 133.6344 342.1245 0.817 0.551 -0.168 57 55 43
-66.7426 133.0303 346.4619 0.907 0.332 -0.261 55 49 37
-57.2364 141.6659 250.7450 -0.900 -0.414 -0.135 120 112 89
-67.7273 138.9518 337.9289 0.591 -0.779 -0.211 47 55 40
-51.7805 140.0483 280.8903 -0.956 0.224 -0.190 123 114 97
-1.0509 129.8674 306.2567 -0.092 0.976 -0.198 94 73 54
-47.6500 143.3006 280.8576 -0.925 0.335 -0.182 170 162 139
-1.6248 132.5895 312.6683 -0.718 0.609 -0.337 68 52 37
1.0405 132.2608 308.9635 -0.159 0.965 -0.208 98 81 55
-0.9628 133.1062 314.5838 -0.617 0.683 -0.390 71 58 42
1.1947 132.9839 308.9423 -0.632 0.689 -0.356 96 80 54
-0.8965 133.7244 317.0646 -0.347 0.904 -0.249 67 58 41
-0.4174 133.6813 316.0464 -0.534 0.781 -0.323 73 65 46
1.7247 133.4071 312.9834 -0.778 0.438 -0.451 92 81 53
2.5649 133.2129 313.3643 -0.753 0.546 -0.367 96 82 55
1.9710 133.9611 316.0280 -0.439 0.775 -0.455 89 84 55
2.7165 133.8068 316.0359 -0.640 0.585 -0.499 91 84 55
2.5885 134.5216 317.7093 -0.309 0.922 -0.234 87 86 55
-57.1414 148.1514 362.6723 0.725 -0.681 -0.102 51 62 45
-74.7437 154.7384 353.7027 -0.070 -0.968 -0.241 33 118 77
-71.3493 158.8225 377.0707 0.002 -0.828 -0.561 33 128 86
31.4009 139.7585 355.2076 0.952 -0.188 -0.241 53 82 60
27.3400 150.0002 341.5058 -0.571 0.813 -0.115 27 82 79
-36.8654 167.1818 331.7031 0.761 -0.643 -0.089 20 94 57
-57.9189 172.4424 309.2093 -0.947 -0.144 -0.288 19 111 72
