ply
format ascii 1.0
element vertex 52
property float x
property float y
property float z
property float nx
property float ny
property float nz
property uchar diffuse_red
property uchar diffuse_green
property uchar diffuse_blue
end_header
47.6546 -2.8113 122.4451 0.188 0.483 -0.855 125 113 99
47.4024 -2.7075 123.8385 0.394 0.801 -0.451 104 94 84
65.6421 5.1063 208.5295 0.552 0.753 -0.357 66 45 40
57.3794 6.0736 182.3154 0.952 0.151 -0.268 64 45 39
63.4605 6.2179 200.2652 -0.660 0.086 -0.747 60 41 35
77.2651 13.6066 205.0278 -0.565 -0.497 -0.659 51 29 31
27.8613 11.9992 106.7278 -0.549 -0.809 -0.210 113 91 77
37.7364 18.5337 148.7142 -0.351 -0.618 -0.704 62 41 36
62.2423 20.0147 165.4698 0.473 -0.055 -0.879 48 30 30
59.6054 35.3025 192.2997 0.598 -0.757 -0.263 55 26 20
60.0812 36.7177 199.5124 -0.134 -0.933 -0.335 107 80 63
58.4599 35.0716 187.3050 0.473 -0.846 -0.245 53 23 21
30.0062 25.2493 110.2387 0.390 -0.918 -0.071 39 24 21
30.3246 25.2905 110.5081 0.339 -0.938 -0.072 41 26 21
59.1293 38.0814 199.3458 -0.630 -0.706 -0.322 143 120 104
57.2470 39.4105 199.0028 0.382 -0.923 -0.047 55 34 29
57.7458 39.4453 199.2071 0.369 -0.928 -0.049 51 28 22
-24.7864 37.2393 186.2682 -0.764 -0.583 -0.276 98 72 75
-25.0930 37.5052 184.9921 -0.744 -0.617 -0.258 90 61 65
-24.4238 37.2740 183.4427 -0.773 -0.571 -0.277 91 62 64
55.0212 43.1496 199.1594 -0.868 -0.032 -0.495 46 28 24
-18.6797 39.9215 180.0037 0.076 -0.960 -0.271 38 18 20
-19.8018 42.6516 190.5396 -0.099 -0.989 -0.106 36 16 18
-18.6863 42.3558 188.8151 -0.101 -0.989 -0.106 49 27 29
26.0129 45.1320 195.3128 0.845 0.534 -0.032 55 30 26
22.7385 49.6546 199.1631 0.298 -0.019 -0.954 58 33 29
22.1493 49.9254 198.1437 0.719 -0.570 -0.398 58 32 31
62.8596 45.2224 171.0410 -0.275 -0.761 -0.588 49 34 37
-16.7007 46.3123 166.4672 0.001 0.931 -0.366 43 24 30
-15.8965 46.3604 166.6899 0.047 0.925 -0.378 44 21 27
-15.4618 46.3077 166.4546 -0.005 0.909 -0.417 47 25 28
-16.3877 46.9264 167.3640 0.134 0.854 -0.503 45 24 31
-22.9691 53.5710 194.8183 -0.472 -0.874 -0.113 26 10 11
-15.7608 46.8107 165.0206 0.350 -0.767 -0.538 50 27 33
-25.6524 54.4753 196.6175 -0.544 -0.830 -0.121 123 102 97
-15.7334 47.1268 164.6099 0.360 0.496 -0.790 52 29 35
-26.3068 55.2243 197.7237 -0.441 -0.891 -0.106 73 49 45
-25.4879 54.6488 195.2456 -0.430 -0.897 -0.105 109 88 83
-15.1456 47.8077 162.3034 -0.557 -0.777 -0.294 58 36 38
-14.7385 47.7928 162.2467 -0.387 -0.851 -0.356 61 36 39
-14.5889 47.7728 160.4756 -0.480 -0.798 -0.364 60 38 40
-40.6329 55.2735 189.4671 -0.729 -0.650 -0.215 228 225 216
-16.1455 51.1351 172.7407 -0.144 -0.684 -0.715 56 36 37
-15.6242 48.1289 158.6420 0.289 -0.949 -0.123 32 14 14
-15.2866 48.2688 159.2230 0.284 -0.951 -0.123 44 24 25
-15.0758 48.0954 156.9122 0.203 -0.968 -0.144 41 22 24
-14.8156 52.1288 166.5804 -0.289 -0.920 -0.265 54 39 36
-15.8857 52.8242 164.4693 -0.514 -0.825 -0.235 35 16 20
-15.7445 52.8126 162.8876 -0.452 -0.856 -0.251 36 17 21
-13.8732 53.0985 159.5372 -0.400 0.849 -0.345 62 38 38
-14.3822 54.1802 160.5546 0.169 0.832 -0.529 72 52 51
76.7764 68.0993 195.8325 0.977 0.152 -0.152 43 27 38
