ply
format ascii 1.0
element vertex 49
property float x
property float y
property float z
property float nx
property float ny
property float nz
property uchar diffuse_red
property uchar diffuse_green
property uchar diffuse_blue
end_header
27.3455 -10.6421 388.0736 0.061 -0.972 -0.227 171 153 133
225.5648 34.0458 243.8770 0.778 0.602 -0.181 198 192 178
16.8742 66.8343 358.2657 0.296 -0.145 -0.944 75 65 53
18.9393 67.7920 354.0807 -0.790 -0.427 -0.439 83 73 61
-92.6932 84.3555 390.5445 -0.857 0.026 -0.515 149 133 110
-89.6969 85.1597 386.8401 -0.841 0.144 -0.521 134 116 94
17.8013 70.6123 353.6653 -0.457 0.868 -0.196 66 56 44
21.0523 70.6612 347.4846 -0.820 -0.080 -0.567 73 63 53
2.1648 72.2636 373.6006 -0.862 0.355 -0.362 194 187 161
20.7186 71.3829 349.3365 -0.830 0.029 -0.557 69 59 49
7.4931 73.3246 381.7241 -0.597 0.741 -0.307 187 179 160
44.1557 68.0530 379.3047 0.063 0.922 -0.382 17 67 42
63.1089 67.0577 373.5730 -0.926 0.266 -0.268 198 205 213
60.7323 67.3334 386.6437 -0.933 0.239 -0.269 203 216 225
63.0193 67.8250 375.5308 -0.924 0.269 -0.272 202 209 217
287.1049 34.2894 347.1986 0.729 0.651 -0.210 195 189 177
-88.4748 97.9991 388.5646 -0.839 -0.038 -0.544 68 115 83
-87.2880 98.8694 386.5460 -0.840 0.074 -0.537 67 116 84
-52.4174 95.5168 372.2914 -0.602 -0.702 -0.380 79 63 48
11.0620 87.0897 328.1494 -0.815 -0.394 -0.425 167 161 135
-80.7428 101.1381 376.3775 -0.842 0.106 -0.528 59 123 89
-78.4661 101.7922 373.9286 -0.170 -0.158 -0.973 46 118 81
-42.2851 97.2312 357.8447 -0.720 -0.520 -0.460 195 183 157
-38.3886 97.7681 350.9901 -0.774 -0.440 -0.455 192 180 154
296.6778 39.3071 366.1909 -0.414 -0.899 -0.142 91 90 86
296.0799 39.5473 363.3782 -0.404 -0.902 -0.151 151 148 141
-53.9467 102.0244 354.7379 -0.743 -0.466 -0.480 48 67 45
-80.8434 106.7205 374.8170 -0.857 -0.041 -0.513 62 113 82
-45.6606 102.9372 339.1921 -0.464 -0.823 -0.328 62 64 50
-44.7969 102.0401 357.4615 0.259 0.361 -0.896 78 62 49
-44.7847 102.8967 357.7567 -0.080 0.681 -0.728 72 56 43
-52.1127 104.5039 372.9285 -0.725 -0.546 -0.419 75 58 48
21.5115 95.8364 295.9103 -0.615 0.705 -0.354 147 141 117
-24.3244 104.8208 313.7933 -0.412 0.840 -0.354 74 58 43
-44.9157 109.2537 310.8073 -0.780 -0.410 -0.472 46 122 86
-14.0516 103.7328 352.5414 -0.710 0.627 -0.321 189 184 155
-46.4466 111.7748 311.6533 -0.825 -0.310 -0.471 67 127 102
-20.8213 110.8626 369.6827 -0.700 -0.587 -0.406 149 143 117
-9.1706 110.5974 339.8714 -0.598 -0.723 -0.345 169 163 139
241.5276 66.6892 253.2907 -0.230 -0.960 -0.157 195 190 186
232.2706 70.6043 238.2846 -0.266 -0.950 -0.161 73 67 67
26.6603 109.9555 291.4593 -0.885 0.292 -0.363 183 177 153
50.8256 125.1429 365.5958 -0.890 0.333 -0.312 127 123 88
75.3917 117.0366 225.5132 -0.197 0.969 -0.151 58 99 105
2.4261 141.0998 303.5993 -0.150 0.947 -0.283 93 112 92
46.1662 149.1467 318.6196 -0.864 0.318 -0.390 27 85 60
29.0776 168.7877 367.9736 -0.525 0.758 -0.388 43 96 70
35.7785 174.3036 352.2009 0.642 -0.585 -0.496 200 204 207
30.5707 180.7212 370.0509 -0.249 -0.220 -0.943 206 206 208
