ply
format ascii 1.0
element vertex 56
property float x
property float y
property float z
property float nx
property float ny
property float nz
property uchar diffuse_red
property uchar diffuse_green
property uchar diffuse_blue
end_header
24.5109 94.6526 299.5279 0.256 0.927 -0.275 176 184 195
26.4439 93.2978 303.1556 0.216 0.937 -0.274 179 182 191
39.1951 74.7518 367.5068 -0.066 0.738 -0.671 49 203 153
-17.7973 98.5350 325.4542 -0.918 -0.355 -0.179 160 155 126
38.1442 77.5375 360.9049 0.703 -0.212 -0.679 21 167 122
38.6490 77.6946 359.8637 0.908 -0.254 -0.334 10 141 107
30.6082 88.1893 325.4088 0.987 -0.042 -0.156 39 93 105
-28.9175 100.2574 331.1467 0.563 -0.628 -0.537 177 172 143
-28.0040 99.8154 332.1241 0.746 -0.192 -0.638 178 173 144
-27.1463 99.4876 332.6961 0.668 -0.162 -0.726 180 175 146
-26.4535 99.4746 332.1600 0.074 -0.224 -0.972 170 165 136
40.3061 77.7152 361.7916 0.933 -0.120 -0.339 14 128 105
120.3211 51.2250 402.7577 -0.243 -0.183 -0.952 194 188 188
37.9197 76.7668 374.6916 -0.192 0.635 -0.748 6 96 61
119.8275 52.1867 403.1972 0.108 0.729 -0.676 190 184 184
-91.5551 107.2777 366.9088 0.623 0.672 -0.400 26 97 57
-44.2676 100.9606 351.3928 -0.913 -0.093 -0.398 143 138 118
-95.4611 109.9082 366.7652 -0.453 -0.846 -0.281 48 93 70
-63.4011 119.3915 298.7250 0.944 0.084 -0.320 191 181 156
-65.5803 98.9553 389.6356 -0.437 0.839 -0.323 88 80 61
41.5333 80.1008 372.5295 0.255 0.772 -0.583 66 217 164
32.8521 91.3484 333.0437 0.988 -0.034 -0.148 21 108 102
-64.3845 98.9350 392.6085 -0.183 0.936 -0.301 152 144 123
-57.7573 131.1873 249.5668 -0.383 -0.869 -0.314 149 143 119
-64.0536 98.8141 396.8704 -0.252 0.916 -0.313 161 153 132
-41.4762 105.2495 352.1374 0.523 0.526 -0.671 179 173 149
-47.7366 113.4634 325.7145 0.954 0.179 -0.240 134 127 108
-45.2103 111.6762 334.7015 0.973 0.038 -0.230 145 139 117
-42.3029 106.0519 356.8596 0.213 0.408 -0.888 156 150 128
-38.8883 105.1341 357.6880 0.976 -0.034 -0.216 177 173 144
-78.1725 129.4431 293.4912 0.845 0.500 -0.189 40 79 50
-46.6786 108.0362 359.8815 -0.883 0.446 -0.146 154 148 124
-78.0365 129.7129 295.3504 0.827 0.529 -0.188 39 80 50
-45.9639 124.0379 296.4258 -0.406 0.888 -0.217 167 161 137
-44.8739 124.0259 298.7514 -0.447 0.869 -0.213 183 179 154
-77.4649 131.3976 300.2979 0.843 0.504 -0.190 43 88 59
-45.1194 124.2018 301.6012 -0.443 0.869 -0.219 171 165 141
40.6374 93.6337 364.2773 0.406 0.722 -0.560 58 255 212
-44.5068 129.5111 288.8621 -0.643 0.724 -0.249 177 173 146
-29.0064 110.0978 388.5062 -0.917 -0.339 -0.210 161 157 128
-50.1712 133.1059 298.5800 0.626 0.309 -0.717 152 146 122
-49.3590 132.6978 299.8486 0.600 0.448 -0.663 152 146 122
-49.8579 133.4306 300.3830 0.790 0.318 -0.524 144 138 114
-50.2663 133.9557 301.9812 0.508 0.161 -0.846 148 142 116
-50.2979 134.6776 306.2295 -0.538 0.576 -0.615 158 152 126
-30.8344 120.3460 364.3441 -0.994 -0.050 -0.101 116 110 88
-50.7546 135.3056 307.4441 -0.572 0.604 -0.555 169 162 136
-49.9834 135.0349 308.0562 -0.601 0.513 -0.613 158 152 126
-28.4750 130.0966 323.5927 -0.382 0.845 -0.374 157 150 132
-1.7102 133.4941 314.4099 -0.346 0.913 -0.218 64 46 32
-46.5567 157.1747 366.6073 0.726 -0.310 -0.614 54 63 46
-45.0902 157.3654 371.5156 0.817 -0.060 -0.573 57 64 48
41.9771 141.0757 364.1333 -0.732 0.115 -0.671 73 111 112
41.7136 141.9352 365.3407 -0.730 0.040 -0.683 70 108 111
-43.9184 165.8943 320.2759 -0.959 0.178 -0.222 63 77 60
38.2916 145.3450 379.7339 -0.956 -0.098 -0.277 18 74 63
