ply
format ascii 1.0
element vertex 95
property float x
property float y
property float z
property float nx
property float ny
property float nz
property uchar diffuse_red
property uchar diffuse_green
property uchar diffuse_blue
end_header
-29.3179 75.9475 375.7846 0.812 -0.060 -0.580 165 164 136
-40.0941 106.2454 287.6186 -0.390 0.431 -0.814 177 176 148
18.0985 93.4587 289.7138 0.992 0.097 -0.081 37 86 100
-99.0815 103.5376 347.4116 -0.748 0.645 -0.154 221 210 192
-97.8884 104.7949 341.7034 -0.704 0.694 -0.153 208 197 179
-96.9085 105.3319 338.8911 -0.706 0.692 -0.153 166 155 137
-95.9211 105.9557 335.7444 -0.706 0.692 -0.153 123 112 92
-38.6383 105.2889 292.7016 0.853 0.324 -0.409 176 174 149
-35.0162 101.3950 304.5596 0.865 0.390 -0.315 170 163 145
-32.4984 100.1311 307.3411 0.629 0.726 -0.278 137 130 112
18.2747 94.6415 287.7322 0.940 0.330 -0.092 72 108 124
-36.9733 103.9473 299.1824 0.872 -0.228 -0.433 172 166 144
-35.9809 103.1492 301.4347 0.698 0.296 -0.651 168 161 142
-31.6925 99.4921 311.9628 -0.857 0.407 -0.317 143 136 118
-33.7455 100.7350 311.7321 0.755 0.586 -0.295 171 165 143
-25.6771 95.2070 326.5093 0.957 -0.235 -0.169 124 117 99
20.5922 93.9471 293.8661 0.952 0.292 -0.089 69 105 121
-32.7154 99.6050 318.2115 0.138 0.822 -0.552 173 167 143
30.8257 76.1941 357.3490 0.824 0.542 -0.163 12 85 58
30.9818 76.7378 355.1047 0.678 0.712 -0.180 13 102 70
31.6113 76.7721 354.4560 0.694 0.696 -0.186 21 127 87
33.4124 75.8944 359.7729 0.761 0.628 -0.161 21 127 87
26.5958 89.1391 313.3561 0.863 0.479 -0.161 39 91 105
-68.5077 94.6234 373.9201 -0.347 -0.863 -0.368 64 55 38
-67.6535 94.6884 372.9496 -0.354 -0.861 -0.364 55 47 28
34.8288 78.1679 353.0105 -0.304 0.899 -0.316 41 195 145
32.8874 80.7795 344.2683 -0.143 -0.920 -0.364 14 163 121
-66.0115 98.0410 361.7450 -0.213 -0.921 -0.326 144 136 115
-65.2055 98.2233 360.3356 -0.234 -0.916 -0.327 181 173 152
15.7949 94.3095 307.7846 0.159 0.922 -0.354 17 73 48
34.3219 78.3588 356.0809 0.083 0.967 -0.240 51 194 141
35.5117 78.4800 354.5932 -0.260 0.906 -0.334 44 192 142
-75.1380 104.0788 348.6176 -0.019 -0.852 -0.523 66 50 35
-66.1901 102.3438 348.0246 -0.297 -0.909 -0.294 165 157 136
-65.4174 102.5331 346.6014 -0.297 -0.909 -0.294 186 178 157
-27.5192 98.9040 329.0435 -0.840 -0.476 -0.260 178 173 144
16.8610 94.0769 310.8177 0.109 0.919 -0.379 17 73 48
36.2566 76.7407 364.4537 0.115 0.971 -0.210 28 162 112
36.8926 78.1062 358.3884 0.167 0.959 -0.227 46 190 141
33.4931 82.1213 345.0366 -0.097 0.915 -0.392 14 151 109
32.6047 83.6169 339.7419 0.125 -0.892 -0.435 3 126 95
-92.8745 112.5302 332.7682 -0.974 -0.004 -0.224 62 116 80
-93.4462 101.9358 376.5461 0.340 -0.929 -0.150 41 97 58
31.7665 87.1481 329.3797 -0.005 0.983 -0.185 39 108 115
31.2513 90.3967 316.5492 0.964 0.245 -0.100 176 186 196
-94.1565 110.6757 344.8531 -0.968 -0.050 -0.245 60 114 82
-92.6472 113.5796 331.5591 -0.968 -0.050 -0.245 56 118 81
-90.4909 112.1597 338.9291 0.314 -0.937 -0.156 25 96 54
39.0819 78.3604 366.2171 0.198 0.953 -0.231 74 216 168
36.3376 82.2872 352.2539 -0.336 0.866 -0.371 15 146 106
-90.3490 116.8192 322.6318 0.265 0.895 -0.360 30 105 64
38.9031 78.9154 367.7590 0.177 0.955 -0.237 56 198 150
39.6269 78.8633 367.3376 0.194 0.953 -0.232 71 217 168
0.8353 95.4378 335.3083 -0.305 0.925 -0.229 67 55 41
40.6219 79.5803 367.1681 -0.763 -0.008 -0.646 47 194 142
-23.5514 96.9234 354.4599 -0.316 0.774 -0.550 163 162 132
40.4083 78.8965 374.1113 -0.162 -0.858 -0.487 36 174 125
28.0378 93.0148 324.6000 -0.723 -0.537 -0.433 11 148 104
27.8011 94.1401 323.3295 -0.774 -0.462 -0.434 6 143 97
-46.4337 117.0109 294.9170 -0.141 0.617 -0.774 180 176 151
27.6790 95.1531 322.4196 -0.775 -0.422 -0.471 4 140 92
27.6308 96.0938 321.7425 -0.761 -0.435 -0.482 5 138 93
25.4160 98.6195 312.6004 -0.154 0.438 -0.886 0 115 88
-79.0788 127.4041 285.5040 -0.949 0.275 -0.157 40 87 51
-0.8994 92.3996 368.7483 -0.519 0.838 -0.168 176 172 145
27.0182 97.5399 319.3165 -0.544 0.498 -0.675 7 140 97
25.5684 99.3502 312.5626 0.264 0.622 -0.737 0 114 87
34.3777 89.6158 351.7372 -0.942 0.069 -0.329 65 221 173
27.7814 98.1267 322.9608 -0.042 0.685 -0.727 34 184 139
-52.0496 116.4069 327.0846 -0.928 0.336 -0.160 174 167 141
-51.9679 119.5601 315.6624 -0.800 0.567 -0.195 163 157 131
29.8412 100.4131 324.8860 0.547 0.719 -0.428 4 147 117
-51.5655 119.5695 318.9189 -0.982 0.145 -0.122 162 156 130
-35.5764 103.8963 378.7192 -0.172 0.419 -0.892 182 181 151
30.0988 98.5118 341.6937 0.941 -0.192 -0.280 9 125 86
35.9605 97.4972 348.9154 0.645 -0.691 -0.327 70 255 221
-46.8199 126.8829 292.2766 -0.274 0.910 -0.311 140 134 112
35.4074 98.9081 346.6202 0.644 -0.673 -0.362 72 255 224
32.7102 101.0870 342.6346 0.782 0.369 -0.502 94 254 228
33.9079 101.0755 341.3906 0.673 0.498 -0.547 78 252 225
35.0420 100.6345 342.4343 -0.792 0.454 -0.408 71 244 216
35.0466 101.0934 344.3657 0.349 0.917 -0.194 91 253 232
-43.6633 123.1957 319.5481 -0.117 0.963 -0.244 150 144 122
-43.6611 124.5761 312.2303 -0.194 0.934 -0.300 159 153 131
36.1322 100.6933 349.6930 0.423 0.885 -0.192 115 255 240
40.6698 98.5323 356.0779 0.063 0.980 -0.188 40 179 158
42.8323 98.3272 364.1009 0.050 0.983 -0.176 113 223 214
43.9834 99.7689 354.9377 0.636 0.746 -0.195 42 104 117
46.5358 97.4375 369.5681 0.081 0.979 -0.187 28 119 110
-67.0791 136.8533 323.2558 -0.140 0.973 -0.185 53 40 31
-81.5633 152.2174 270.8058 0.508 0.807 -0.302 39 117 75
-86.2371 152.7481 283.4989 0.566 -0.487 -0.665 101 119 119
-88.2854 153.2927 287.7106 -0.631 -0.328 -0.703 223 224 228
-54.1781 156.1276 342.5981 0.771 -0.130 -0.624 43 77 52
-71.4942 163.0102 333.6132 0.479 0.809 -0.340 34 119 80
