ply
format ascii 1.0
element vertex 41
property float x
property float y
property float z
property float nx
property float ny
property float nz
property uchar diffuse_red
property uchar diffuse_green
property uchar diffuse_blue
end_header
56.3057 -18.5167 164.4175 -0.609 0.371 -0.702 170 156 129
80.3633 -28.4365 205.9773 0.228 0.892 -0.390 194 186 163
58.4457 -16.3645 158.4378 -0.340 0.589 -0.733 181 171 144
80.5908 -28.1262 206.5934 0.233 0.892 -0.387 193 183 158
58.4741 -16.5618 160.4910 -0.277 0.724 -0.632 177 166 138
58.8172 -16.5391 160.4891 -0.271 0.719 -0.641 177 167 140
58.3413 -15.7457 160.1270 0.017 0.752 -0.659 170 159 131
59.0070 -15.8523 162.0618 -0.030 0.824 -0.566 169 155 126
60.8027 -15.9824 167.2857 -0.638 -0.311 -0.704 165 151 122
62.9963 -16.1592 171.5261 -0.050 -0.807 -0.588 162 145 117
64.2386 -15.9243 170.9002 0.293 -0.850 -0.437 167 153 124
-16.5117 18.9853 163.3536 -0.027 -0.378 -0.926 82 61 58
62.7190 21.5913 162.6964 0.885 -0.383 -0.263 52 36 37
37.6123 28.0335 132.1715 0.617 0.785 -0.047 58 33 26
58.4298 34.5190 189.4318 0.357 0.919 -0.170 65 34 29
53.9304 35.9526 185.2877 0.288 0.949 -0.130 76 53 37
57.9397 38.5735 196.7781 -0.161 0.624 -0.765 138 115 101
57.8641 39.5943 198.1112 0.264 0.959 -0.106 77 55 44
59.0318 37.5610 166.7690 0.983 0.053 -0.173 58 39 45
-18.2657 42.1408 189.2272 0.119 0.960 -0.255 63 39 39
-19.7131 43.4983 193.3680 0.331 0.885 -0.327 45 23 25
-18.8292 43.5787 194.0630 0.339 0.883 -0.324 61 37 37
-19.0305 44.2392 195.7584 0.484 0.773 -0.410 61 37 37
-14.4414 41.4010 154.4983 -0.262 -0.284 -0.922 53 33 34
-15.5819 43.2494 154.0141 -0.412 0.856 -0.313 34 13 20
22.6069 50.0875 198.1222 0.398 0.400 -0.826 59 35 31
-30.9882 48.5643 185.0925 0.215 -0.911 -0.352 217 205 205
-29.9756 48.5124 184.6801 0.231 -0.924 -0.304 193 177 178
-14.4877 44.4383 154.2773 -0.731 0.264 -0.630 62 40 42
-29.5011 48.9630 184.5774 0.404 -0.786 -0.468 131 113 113
-15.9677 45.1823 156.9223 -0.826 -0.101 -0.555 39 18 25
-14.0253 44.2444 150.1007 -0.343 0.809 -0.478 55 33 35
80.2601 52.4068 206.3744 -0.245 0.923 -0.297 50 34 37
-29.1843 49.5400 185.3811 0.758 -0.256 -0.599 72 50 53
-28.8694 49.6687 186.2857 0.727 -0.488 -0.484 70 41 45
-14.6133 44.8665 151.8828 -0.330 0.688 -0.646 44 22 25
-13.4617 45.2120 151.6348 -0.460 0.693 -0.556 53 29 29
-24.2801 51.1783 190.1482 -0.141 0.963 -0.230 66 46 45
-22.4427 48.8473 171.2084 -0.557 0.792 -0.249 125 104 99
-15.8531 51.3000 173.1383 -0.289 0.932 -0.220 59 35 33
73.6111 75.0910 203.2330 0.981 0.117 -0.153 46 35 49
