ply
format ascii 1.0
element vertex 44
property float x
property float y
property float z
property float nx
property float ny
property float nz
property uchar diffuse_red
property uchar diffuse_green
property uchar diffuse_blue
end_header
-61.6629 89.2813 350.0143 -0.993 0.020 -0.115 172 167 145
39.2346 72.1491 359.3805 -0.039 -0.938 -0.344 10 160 123
38.0103 73.2042 355.6564 0.218 -0.893 -0.395 10 160 123
43.8675 73.3095 380.7210 0.589 -0.786 -0.186 34 201 149
34.8392 74.5438 348.9057 0.195 -0.936 -0.294 48 220 172
101.3651 64.1328 354.7070 0.009 -0.339 -0.941 195 194 192
29.9357 77.6411 332.3069 0.213 -0.957 -0.199 13 171 136
-98.2495 100.8131 359.6763 0.131 -0.859 -0.494 221 230 227
-13.6807 85.8213 329.4044 -0.183 -0.959 -0.216 186 181 159
-14.4935 85.8333 322.8806 -0.098 -0.980 -0.175 179 174 154
-98.0579 101.5966 356.8848 -0.274 -0.752 -0.600 221 232 228
-97.2077 101.4448 356.5688 -0.190 -0.800 -0.569 201 218 210
-97.0536 102.2697 355.8124 -0.260 -0.752 -0.606 199 216 210
-97.6840 103.1283 351.4602 0.071 -0.953 -0.295 226 236 235
-96.8597 103.0047 352.0859 -0.656 -0.636 -0.407 198 215 209
31.9073 80.8079 342.5219 0.575 -0.796 -0.188 59 252 208
22.5524 81.5581 311.0236 0.368 -0.894 -0.254 9 168 138
48.7025 79.8211 378.1533 0.844 -0.510 -0.166 0 124 102
-94.9143 104.4178 352.9374 -0.152 -0.979 -0.134 77 118 102
32.4995 83.0713 338.5933 0.652 -0.737 -0.179 50 231 200
41.9308 82.1736 359.3504 0.839 -0.519 -0.165 0 129 109
23.1861 84.6998 317.2474 0.569 -0.801 -0.187 62 252 216
21.1518 85.5873 311.3620 0.568 -0.801 -0.188 66 251 217
29.7071 91.5836 349.5739 -0.838 -0.313 -0.446 27 91 56
44.5748 89.4105 356.0139 0.609 -0.776 -0.164 42 109 115
35.1415 92.0029 330.6354 0.610 -0.775 -0.167 50 110 118
2.0671 94.3912 251.0276 0.842 -0.502 -0.197 102 161 165
-19.3160 108.7371 332.7034 -0.490 -0.809 -0.324 148 143 121
-19.7171 110.1523 329.6429 -0.561 -0.783 -0.270 144 139 117
-28.2977 111.9897 325.0021 -0.073 -0.977 -0.202 132 126 110
-14.9576 114.3155 374.2163 -0.862 0.192 -0.469 114 111 96
-31.4154 119.3210 351.6691 -0.932 0.282 -0.229 176 175 147
-19.7423 119.4575 363.3922 -0.855 -0.277 -0.438 173 168 146
-20.3065 120.5242 364.1148 -0.842 -0.335 -0.423 190 186 161
-19.9635 120.1801 361.5415 -0.750 -0.440 -0.494 176 172 147
-52.6762 122.3444 303.8311 -0.148 -0.969 -0.196 108 101 83
-51.7172 129.5232 337.2251 -0.941 0.201 -0.273 82 70 56
-68.8148 127.2901 292.3126 -0.829 -0.426 -0.363 38 87 57
-46.1563 138.0611 368.2866 0.146 -0.904 -0.401 65 52 43
-19.7893 132.3130 321.9125 -0.935 -0.275 -0.222 71 57 48
-48.1509 142.0734 327.2958 0.767 -0.397 -0.505 60 60 48
-27.9652 135.9897 312.3656 0.148 -0.971 -0.188 64 46 42
-27.4078 136.3959 310.8770 0.187 -0.953 -0.238 68 49 45
-22.2806 137.3407 316.7515 0.022 -0.960 -0.281 55 45 36
