ply
format ascii 1.0
element vertex 53
property float x
property float y
property float z
property float nx
property float ny
property float nz
property uchar diffuse_red
property uchar diffuse_green
property uchar diffuse_blue
end_header
71.6534 73.2301 295.8369 -0.744 0.653 -0.140 202 208 224
31.6702 110.1223 209.2033 -0.390 -0.862 -0.325 120 114 100
-83.6493 97.2536 373.0050 -0.570 -0.402 -0.717 193 198 175
-82.0389 98.0633 371.9438 -0.546 -0.580 -0.604 127 146 118
17.0414 85.5248 349.2878 -0.504 0.855 -0.124 184 172 156
1.0898 89.4695 353.9248 -0.326 -0.892 -0.312 152 147 118
50.7348 72.9371 384.0348 -0.935 0.228 -0.271 50 224 175
0.9155 91.6399 347.8589 -0.357 -0.874 -0.330 180 175 145
9.4535 95.0445 331.0676 -0.071 -0.950 -0.305 153 148 119
19.6285 90.4528 355.8252 -0.769 -0.402 -0.498 85 76 59
-15.6159 110.8490 292.8352 -0.752 0.549 -0.365 76 62 49
-44.3387 104.0627 366.1514 -0.706 0.390 -0.591 191 180 150
-11.3834 112.5679 290.3971 -0.829 0.332 -0.450 155 143 121
-10.4493 112.4839 289.8371 -0.863 0.092 -0.496 188 176 152
-39.9620 105.7930 356.9719 -0.608 0.441 -0.661 190 179 151
-5.9311 106.1736 318.3628 -0.802 0.484 -0.351 130 122 103
-5.2466 106.3706 320.6835 -0.497 0.782 -0.375 142 134 113
-9.0978 121.9053 248.0146 0.531 0.591 -0.608 41 126 85
-13.0419 117.7074 275.5320 -0.342 -0.752 -0.563 51 69 47
-10.2883 122.1183 251.5075 0.699 0.507 -0.504 30 117 72
-21.3781 120.4449 273.4137 -0.713 0.553 -0.431 30 116 71
-13.0560 118.5566 274.5167 -0.172 -0.769 -0.615 38 77 50
-7.1202 108.1019 330.5802 0.920 -0.196 -0.341 180 174 152
-33.1010 113.0389 337.1138 -0.525 0.805 -0.277 89 76 59
-27.5967 113.4072 328.5888 -0.539 0.794 -0.281 186 174 152
-27.1061 113.2038 329.1841 -0.569 0.766 -0.300 195 183 161
-7.2098 108.8168 331.1700 0.917 -0.052 -0.395 183 177 155
-7.3189 109.8639 329.8684 0.890 -0.185 -0.416 166 160 136
-8.8781 110.5826 332.2052 0.916 -0.226 -0.332 156 148 125
-12.8820 110.7968 340.6040 0.308 0.798 -0.518 155 147 124
-46.9049 117.9743 343.9645 -0.500 0.796 -0.340 41 86 57
-44.6483 118.0004 341.0220 -0.514 0.793 -0.327 40 65 43
26.9097 110.7209 296.9875 -0.780 -0.473 -0.410 125 117 96
-35.1003 123.8771 302.4052 -0.838 0.131 -0.529 28 121 74
-26.1537 126.9524 275.9398 -0.385 0.862 -0.329 54 85 87
-10.9010 116.3141 323.9325 -0.063 0.936 -0.347 182 177 145
-10.0011 116.1867 323.5811 -0.063 0.936 -0.347 179 174 144
-9.2049 116.0414 323.4777 -0.057 0.936 -0.346 176 171 141
-8.8788 115.8112 324.5212 -0.102 0.938 -0.331 168 163 134
-4.8862 115.0853 323.9860 0.796 0.223 -0.563 165 159 135
-3.5500 114.4406 326.3625 0.814 0.169 -0.556 185 179 155
-32.2081 127.2830 286.0459 -0.733 0.520 -0.439 140 155 158
8.9983 125.2445 270.5676 -0.725 -0.554 -0.409 196 187 154
-46.1953 130.6485 317.3583 -0.245 0.949 -0.201 41 87 84
-55.8221 131.6824 329.8294 -0.258 0.953 -0.161 232 232 234
-52.8650 131.6274 325.8015 -0.254 0.953 -0.163 190 200 202
1.7930 119.6270 338.7299 -0.520 -0.789 -0.327 167 158 141
23.7635 130.3534 237.2866 -0.659 -0.610 -0.440 185 174 146
9.3190 120.0066 357.0797 -0.745 -0.550 -0.378 198 192 170
54.1493 136.1466 171.6568 -0.736 -0.462 -0.495 148 137 117
100.7078 134.6393 146.4379 -0.530 -0.794 -0.298 210 216 232
9.7634 145.7280 287.9560 -0.517 0.806 -0.287 69 54 47
59.1868 157.9917 273.0775 -0.915 -0.154 -0.372 53 96 76
