ply
format ascii 1.0
element vertex 46
property float x
property float y
property float z
property float nx
property float ny
property float nz
property uchar diffuse_red
property uchar diffuse_green
property uchar diffuse_blue
end_header
48.2123 -17.8848 149.5943 0.663 0.525 -0.533 173 161 135
-90.4972 -23.3746 137.9150 -0.628 0.622 -0.468 221 217 218
-94.1168 -24.0277 142.0560 -0.572 0.740 -0.355 237 233 234
52.6170 -16.8619 153.1716 -0.148 0.739 -0.657 174 160 133
53.0538 -13.6911 141.5755 -0.388 0.409 -0.826 189 178 156
53.0321 -17.1009 155.4593 -0.398 0.676 -0.621 170 156 129
53.3263 -17.0480 155.3324 -0.381 0.686 -0.620 171 157 130
53.8526 -15.8520 151.0053 0.298 0.772 -0.562 178 166 140
54.8384 -15.7062 151.9833 -0.488 0.799 -0.352 178 166 140
55.5746 -15.2334 150.3832 0.307 0.551 -0.776 179 169 142
53.8826 -17.3063 159.1282 -0.578 0.165 -0.799 163 149 120
55.4098 -16.9687 159.5925 0.563 -0.099 -0.821 164 150 121
55.3820 -16.5884 159.5215 0.623 -0.395 -0.676 162 147 118
55.2855 -16.2551 158.2113 0.361 0.830 -0.424 162 148 119
57.1985 -14.8197 153.1323 0.874 -0.203 -0.442 178 168 141
56.1518 -15.4737 156.7808 0.179 0.862 -0.474 165 151 122
55.8647 -14.5433 153.0865 -0.104 0.745 -0.659 170 156 127
56.1913 -14.5215 153.0804 -0.104 0.745 -0.659 170 159 131
56.5338 -14.5102 153.1197 -0.052 0.758 -0.651 173 162 134
56.6124 -15.1816 157.1470 -0.020 0.865 -0.502 166 152 123
57.0705 -15.2408 157.4910 -0.002 0.776 -0.631 168 154 125
58.9009 -13.8029 157.9222 0.734 -0.021 -0.679 164 149 120
59.2458 -13.4304 157.9507 0.738 0.481 -0.473 164 149 120
59.6617 -13.4571 158.1639 0.791 0.430 -0.434 166 151 122
60.5958 -13.4348 159.8003 0.781 0.518 -0.348 166 151 122
61.3587 -12.9378 160.9632 0.638 -0.208 -0.742 165 148 120
55.5953 6.5407 177.2563 0.119 0.920 -0.375 64 45 39
40.5215 28.8170 148.8760 0.819 -0.307 -0.485 48 29 23
73.1127 31.8944 194.2996 0.924 0.105 -0.368 50 31 33
58.4054 36.6580 194.9281 0.740 0.663 -0.109 109 84 62
58.9994 38.4504 200.1006 0.316 0.939 -0.133 139 116 100
59.2291 39.1214 202.5019 0.303 0.944 -0.133 96 72 60
57.0678 36.4705 162.1269 0.732 0.407 -0.547 50 31 37
-16.8199 37.1649 157.9137 0.025 0.840 -0.541 48 29 33
-17.0521 38.5234 159.6250 0.247 0.807 -0.537 46 27 31
-16.6694 43.3337 165.9911 -0.416 0.824 -0.385 45 23 26
-14.0623 41.8708 149.2267 0.653 0.680 -0.333 60 35 39
-18.9678 47.2536 182.0392 0.304 0.877 -0.372 35 14 21
-14.7399 42.8625 148.4155 0.707 0.576 -0.411 49 26 32
-14.4319 43.3026 148.8930 0.759 0.420 -0.498 59 37 40
-14.1107 43.3710 149.3500 0.660 0.007 -0.751 68 43 47
-14.9472 43.8510 150.0980 -0.497 -0.189 -0.847 48 25 31
-13.6604 43.6186 148.5151 -0.491 -0.701 -0.517 60 35 38
-13.1941 43.4785 147.5674 -0.364 -0.842 -0.399 57 33 33
-14.1268 44.4692 149.2536 -0.156 0.790 -0.593 46 21 25
-18.0120 50.9074 185.0777 0.749 0.497 -0.438 45 20 23
