ply
format ascii 1.0
element vertex 62
property float x
property float y
property float z
property float nx
property float ny
property float nz
property uchar diffuse_red
property uchar diffuse_green
property uchar diffuse_blue
end_header
-95.5863 91.8970 394.3535 0.039 -0.966 -0.257 226 221 201
45.7767 70.3145 389.0441 0.904 -0.354 -0.239 14 82 57
48.6086 69.8443 388.4693 -0.618 0.669 -0.413 35 155 117
79.6729 75.0682 297.1550 -0.694 -0.613 -0.378 199 195 196
80.6072 75.1842 294.7448 -0.634 -0.681 -0.366 197 193 194
34.4660 86.5525 279.3013 0.842 -0.211 -0.496 185 177 158
-82.3787 98.5756 372.6237 0.020 -0.740 -0.672 206 218 196
-88.4282 101.0416 385.2018 -0.449 0.820 -0.354 206 220 197
-91.9123 103.1595 389.0529 0.269 0.164 -0.949 223 222 202
1.2259 90.2021 351.5935 0.893 -0.193 -0.406 170 165 136
17.9090 90.2652 327.7407 -0.232 -0.953 -0.196 186 179 153
-54.8543 99.0378 387.8766 -0.069 -0.975 -0.213 192 180 156
-51.8788 98.9506 382.9692 -0.122 -0.967 -0.222 194 182 156
0.9906 92.3004 348.0152 0.364 0.446 -0.818 184 179 150
-84.4177 106.7565 375.7434 0.010 -0.946 -0.324 221 224 203
-53.8555 99.9754 385.8873 -0.034 -0.972 -0.232 191 179 155
8.5422 94.3170 337.8046 -0.893 0.174 -0.415 180 174 150
8.6757 95.1094 337.8226 -0.897 0.167 -0.409 177 171 149
19.3619 91.2350 369.0118 -0.526 0.835 -0.160 68 55 39
-77.9821 110.0067 376.5220 -0.453 -0.819 -0.351 51 126 87
10.5046 97.0464 330.0387 -0.461 0.823 -0.331 180 174 152
-82.5699 111.5917 378.9682 0.004 -0.932 -0.362 112 144 120
-76.7836 111.7413 374.7081 -0.373 -0.836 -0.402 51 126 87
-4.8052 103.1037 320.1426 -0.840 -0.259 -0.477 159 151 128
-70.7080 113.1254 364.7926 -0.258 -0.908 -0.330 40 121 80
-33.2810 107.6738 342.1837 -0.243 -0.935 -0.260 195 183 161
-6.9834 104.2794 320.3323 -0.534 0.208 -0.819 139 131 110
-3.9657 103.8655 318.1584 -0.838 -0.266 -0.477 163 155 132
-5.4785 104.5994 322.7529 0.648 -0.539 -0.538 170 162 139
-7.6861 105.0569 333.6663 0.168 0.483 -0.859 194 188 162
-84.0272 117.5172 376.6945 0.526 0.306 -0.794 233 233 225
-84.2062 117.4164 378.7454 -0.340 0.727 -0.597 230 236 226
-83.5007 117.2604 379.0835 -0.547 0.482 -0.684 218 230 220
-81.0277 117.7798 377.9618 0.449 -0.505 -0.737 78 108 96
-8.9928 107.3272 327.2933 -0.565 0.715 -0.412 157 151 125
-8.9760 107.7069 334.0575 0.353 -0.743 -0.568 171 165 139
-16.6647 112.8090 297.8527 -0.371 -0.886 -0.277 85 65 56
-15.2189 112.6346 296.0711 -0.412 -0.864 -0.291 76 56 45
-14.0880 112.4792 295.0188 -0.316 -0.917 -0.245 78 59 45
-10.8888 112.0273 292.2594 -0.378 -0.885 -0.271 196 179 159
2.4508 108.5809 308.7085 -0.737 -0.514 -0.439 187 181 155
-44.5133 118.6941 314.1668 -0.839 -0.183 -0.512 57 134 102
30.3292 109.7288 212.0316 0.057 -0.986 -0.154 173 167 141
-4.2594 111.2149 326.9525 0.853 -0.169 -0.494 172 166 140
-52.1990 121.0690 327.2205 -0.871 -0.087 -0.484 65 124 106
-65.7905 124.2108 351.8871 -0.719 -0.521 -0.460 37 71 70
-12.9552 114.9951 332.9875 -0.112 -0.791 -0.601 131 123 100
-21.9690 119.7137 275.9507 -0.610 -0.687 -0.396 33 121 71
-10.1850 115.4768 327.9110 -0.070 -0.941 -0.332 126 118 95
6.5853 112.2005 330.6369 -0.288 -0.929 -0.231 132 125 109
4.3703 114.6825 317.1805 -0.820 0.460 -0.341 122 114 91
-9.8361 117.0303 382.4051 -0.397 -0.891 -0.218 169 161 140
-43.7122 127.1672 303.7354 -0.434 -0.849 -0.301 231 231 233
2.0049 119.2079 346.3644 -0.209 -0.969 -0.133 189 182 156
-24.7104 126.9575 273.3145 -0.498 -0.813 -0.302 121 143 140
14.4858 119.8378 307.4645 -0.290 -0.943 -0.166 195 188 160
10.7631 119.9986 354.3241 -0.612 0.740 -0.277 189 183 157
22.3788 119.9989 284.8991 -0.344 -0.922 -0.178 194 189 160
9.9423 125.3840 210.3141 -0.539 -0.784 -0.309 72 126 100
25.3348 125.7607 178.2824 -0.391 -0.885 -0.251 206 217 211
27.9945 125.9138 171.2970 -0.530 -0.775 -0.343 235 231 230
44.3265 171.3713 323.8305 -0.900 0.293 -0.322 185 186 190
